ncols         69
nrows         142
xllcorner     146499.907223
yllcorner     75532.943423
cellsize      50.000000
NODATA_value  -9999.0
-9999.0 -9999.0 -9999.0 -9999.0 -9999.0 -9999.0 -9999.0 -9999.0 -9999.0 -9999.0 -9999.0 -9999.0 -9999.0 -9999.0 -9999.0 -9999.0 -9999.0 -9999.0 -9999.0 -9999.0 -9999.0 -9999.0 -9999.0 -9999.0 -9999.0 -9999.0 -9999.0 -9999.0 -9999.0 -9999.0 -9999.0 234.890000 234.934700 234.195600 232.528600 231.708800 231.264600 231.653600 -9999.0 -9999.0 -9999.0 -9999.0 -9999.0 -9999.0 -9999.0 -9999.0 -9999.0 -9999.0 -9999.0 -9999.0 -9999.0 -9999.0 -9999.0 -9999.0 -9999.0 -9999.0 -9999.0 -9999.0 -9999.0 -9999.0 -9999.0 -9999.0 -9999.0 -9999.0 -9999.0 -9999.0 -9999.0 -9999.0 -9999.0
-9999.0 -9999.0 -9999.0 -9999.0 -9999.0 -9999.0 -9999.0 -9999.0 -9999.0 -9999.0 -9999.0 -9999.0 -9999.0 -9999.0 -9999.0 -9999.0 -9999.0 -9999.0 -9999.0 -9999.0 -9999.0 -9999.0 -9999.0 -9999.0 -9999.0 -9999.0 -9999.0 -9999.0 -9999.0 -9999.0 232.616000 233.201600 233.032500 232.308100 230.603000 229.904800 229.118900 229.892400 229.108100 -9999.0 -9999.0 -9999.0 -9999.0 -9999.0 -9999.0 -9999.0 -9999.0 -9999.0 -9999.0 -9999.0 -9999.0 -9999.0 -9999.0 -9999.0 -9999.0 -9999.0 -9999.0 -9999.0 -9999.0 -9999.0 -9999.0 -9999.0 -9999.0 -9999.0 -9999.0 -9999.0 -9999.0 -9999.0 -9999.0
-9999.0 -9999.0 -9999.0 -9999.0 -9999.0 -9999.0 -9999.0 -9999.0 -9999.0 -9999.0 -9999.0 -9999.0 -9999.0 -9999.0 -9999.0 -9999.0 -9999.0 -9999.0 -9999.0 -9999.0 -9999.0 -9999.0 -9999.0 -9999.0 -9999.0 -9999.0 -9999.0 -9999.0 -9999.0 229.595500 230.017400 230.008200 229.987000 229.766800 227.720300 226.810000 226.027900 225.785800 224.531300 222.878800 -9999.0 -9999.0 -9999.0 -9999.0 -9999.0 -9999.0 -9999.0 -9999.0 -9999.0 -9999.0 -9999.0 -9999.0 -9999.0 -9999.0 -9999.0 -9999.0 -9999.0 -9999.0 -9999.0 -9999.0 -9999.0 -9999.0 -9999.0 -9999.0 -9999.0 -9999.0 -9999.0 -9999.0 -9999.0
-9999.0 -9999.0 -9999.0 -9999.0 -9999.0 -9999.0 -9999.0 -9999.0 -9999.0 -9999.0 -9999.0 -9999.0 -9999.0 -9999.0 -9999.0 -9999.0 -9999.0 -9999.0 -9999.0 -9999.0 -9999.0 -9999.0 -9999.0 -9999.0 -9999.0 -9999.0 -9999.0 -9999.0 227.770100 228.134000 227.944200 227.530600 226.792200 226.082600 224.846800 224.297500 223.743100 223.084600 221.413200 220.173900 218.694000 -9999.0 -9999.0 -9999.0 -9999.0 -9999.0 -9999.0 -9999.0 -9999.0 -9999.0 -9999.0 -9999.0 -9999.0 -9999.0 -9999.0 -9999.0 -9999.0 -9999.0 -9999.0 -9999.0 -9999.0 -9999.0 -9999.0 -9999.0 -9999.0 -9999.0 -9999.0 -9999.0 -9999.0
-9999.0 -9999.0 -9999.0 -9999.0 -9999.0 -9999.0 -9999.0 -9999.0 -9999.0 -9999.0 -9999.0 -9999.0 -9999.0 -9999.0 -9999.0 -9999.0 -9999.0 -9999.0 -9999.0 -9999.0 -9999.0 -9999.0 -9999.0 -9999.0 -9999.0 -9999.0 -9999.0 -9999.0 225.683500 225.385200 224.404500 223.566900 221.904100 220.273600 219.974500 219.947600 219.960700 219.800200 218.259400 217.361400 215.864200 215.091800 -9999.0 -9999.0 -9999.0 -9999.0 -9999.0 -9999.0 -9999.0 -9999.0 -9999.0 -9999.0 -9999.0 -9999.0 -9999.0 -9999.0 -9999.0 -9999.0 -9999.0 -9999.0 -9999.0 -9999.0 -9999.0 -9999.0 -9999.0 -9999.0 -9999.0 -9999.0 -9999.0
-9999.0 -9999.0 -9999.0 -9999.0 -9999.0 -9999.0 -9999.0 -9999.0 -9999.0 -9999.0 -9999.0 -9999.0 -9999.0 -9999.0 -9999.0 -9999.0 -9999.0 -9999.0 -9999.0 -9999.0 -9999.0 -9999.0 -9999.0 -9999.0 -9999.0 -9999.0 224.813900 224.698800 224.191800 223.510400 221.974500 221.115900 219.823300 218.152300 216.626300 216.017300 216.036700 216.373500 215.443100 214.747500 213.485000 212.572600 211.448300 211.117100 -9999.0 -9999.0 -9999.0 -9999.0 -9999.0 -9999.0 -9999.0 -9999.0 -9999.0 -9999.0 -9999.0 -9999.0 -9999.0 -9999.0 -9999.0 -9999.0 -9999.0 -9999.0 -9999.0 -9999.0 -9999.0 -9999.0 -9999.0 -9999.0 -9999.0
-9999.0 -9999.0 -9999.0 -9999.0 -9999.0 -9999.0 -9999.0 -9999.0 -9999.0 -9999.0 -9999.0 -9999.0 -9999.0 -9999.0 -9999.0 -9999.0 -9999.0 -9999.0 -9999.0 -9999.0 -9999.0 -9999.0 -9999.0 -9999.0 223.307200 223.607500 223.420400 222.975900 222.112300 220.844800 218.951900 217.477900 215.725500 214.382400 212.071000 210.238600 211.297000 211.581500 210.291400 209.994700 209.992500 209.331200 208.447300 208.032300 208.059600 207.904500 -9999.0 -9999.0 -9999.0 -9999.0 -9999.0 -9999.0 -9999.0 -9999.0 -9999.0 -9999.0 -9999.0 -9999.0 -9999.0 -9999.0 -9999.0 -9999.0 -9999.0 -9999.0 -9999.0 -9999.0 -9999.0 -9999.0 -9999.0
-9999.0 -9999.0 -9999.0 -9999.0 -9999.0 -9999.0 -9999.0 -9999.0 -9999.0 -9999.0 -9999.0 -9999.0 -9999.0 -9999.0 -9999.0 -9999.0 -9999.0 -9999.0 -9999.0 -9999.0 -9999.0 -9999.0 -9999.0 221.510300 222.412800 222.731300 222.433200 221.753100 220.774700 218.945000 216.037600 214.512800 212.735200 211.566900 209.971700 208.295100 208.125200 208.075700 207.271000 206.783500 207.050200 206.892800 206.245800 205.846100 205.857800 205.944200 -9999.0 -9999.0 -9999.0 -9999.0 -9999.0 -9999.0 -9999.0 -9999.0 -9999.0 -9999.0 -9999.0 -9999.0 -9999.0 -9999.0 -9999.0 -9999.0 -9999.0 -9999.0 -9999.0 -9999.0 -9999.0 -9999.0 -9999.0
-9999.0 -9999.0 -9999.0 -9999.0 -9999.0 -9999.0 -9999.0 -9999.0 -9999.0 -9999.0 -9999.0 -9999.0 -9999.0 -9999.0 -9999.0 -9999.0 -9999.0 -9999.0 -9999.0 -9999.0 -9999.0 218.327400 218.963200 219.015800 219.950000 219.969200 219.913300 218.969300 216.812700 214.479700 211.202500 210.011900 209.193400 208.088100 206.054100 204.273700 202.218800 202.001500 201.945500 201.580600 202.397000 202.718500 202.600300 202.169800 202.495000 202.715300 202.809100 203.135700 -9999.0 -9999.0 -9999.0 -9999.0 -9999.0 -9999.0 -9999.0 -9999.0 -9999.0 -9999.0 -9999.0 -9999.0 -9999.0 -9999.0 -9999.0 -9999.0 -9999.0 -9999.0 -9999.0 -9999.0 -9999.0
-9999.0 -9999.0 -9999.0 -9999.0 -9999.0 -9999.0 -9999.0 -9999.0 -9999.0 -9999.0 -9999.0 -9999.0 -9999.0 -9999.0 -9999.0 -9999.0 -9999.0 -9999.0 -9999.0 -9999.0 -9999.0 216.563900 216.296100 216.044800 216.159100 216.020300 215.693500 214.940200 212.599100 211.164200 208.828700 207.517700 206.479300 205.491800 203.432000 201.860400 200.000000 199.948900 199.924400 199.462100 200.009400 200.565800 200.727300 200.043000 200.705900 200.831900 200.811400 201.239500 -9999.0 -9999.0 -9999.0 -9999.0 -9999.0 -9999.0 -9999.0 -9999.0 -9999.0 -9999.0 -9999.0 -9999.0 -9999.0 -9999.0 -9999.0 -9999.0 -9999.0 -9999.0 -9999.0 -9999.0 -9999.0
-9999.0 -9999.0 -9999.0 -9999.0 -9999.0 -9999.0 -9999.0 -9999.0 -9999.0 -9999.0 -9999.0 -9999.0 -9999.0 -9999.0 -9999.0 -9999.0 -9999.0 -9999.0 -9999.0 214.714600 214.169600 213.481200 212.234900 211.032800 209.993200 209.886500 209.604200 208.769800 207.071400 205.957900 204.248300 203.229200 202.283500 201.892600 200.770100 199.901200 198.116900 197.619500 197.218000 197.194400 197.634500 197.961700 198.170100 198.011100 198.313800 198.416500 198.834100 199.559800 -9999.0 -9999.0 -9999.0 -9999.0 -9999.0 -9999.0 -9999.0 -9999.0 -9999.0 -9999.0 -9999.0 -9999.0 -9999.0 -9999.0 -9999.0 -9999.0 -9999.0 -9999.0 -9999.0 -9999.0 -9999.0
-9999.0 -9999.0 -9999.0 -9999.0 -9999.0 -9999.0 -9999.0 -9999.0 -9999.0 -9999.0 -9999.0 -9999.0 -9999.0 -9999.0 -9999.0 -9999.0 -9999.0 -9999.0 213.518700 213.439500 212.555300 211.573100 210.110700 208.946800 206.545800 205.576300 204.687800 204.341800 203.346000 202.397000 201.255600 200.696600 199.996000 200.004000 199.492500 198.543600 196.682100 196.076500 195.631500 195.598600 195.978500 196.171300 196.284800 196.339600 196.670600 196.948900 197.761600 198.659500 -9999.0 -9999.0 -9999.0 -9999.0 -9999.0 -9999.0 -9999.0 -9999.0 -9999.0 -9999.0 -9999.0 -9999.0 -9999.0 -9999.0 -9999.0 -9999.0 -9999.0 -9999.0 -9999.0 -9999.0 -9999.0
-9999.0 -9999.0 -9999.0 -9999.0 -9999.0 -9999.0 -9999.0 -9999.0 -9999.0 -9999.0 -9999.0 -9999.0 -9999.0 -9999.0 -9999.0 -9999.0 -9999.0 211.573900 211.538500 211.012000 210.087800 209.162100 206.881400 205.293500 202.165300 200.177300 198.929800 198.778000 198.580900 198.388300 197.684800 197.615300 197.277900 197.178600 196.748500 195.897900 194.262900 193.622200 193.320600 193.201000 193.454600 193.599200 193.560000 193.844100 194.527600 195.099300 196.207600 197.111700 -9999.0 -9999.0 -9999.0 -9999.0 -9999.0 -9999.0 -9999.0 -9999.0 -9999.0 -9999.0 -9999.0 -9999.0 -9999.0 -9999.0 -9999.0 -9999.0 -9999.0 -9999.0 -9999.0 -9999.0 -9999.0
-9999.0 -9999.0 -9999.0 -9999.0 -9999.0 -9999.0 -9999.0 -9999.0 -9999.0 -9999.0 -9999.0 -9999.0 -9999.0 -9999.0 -9999.0 -9999.0 210.397600 210.001400 210.004800 209.366900 208.207200 206.855600 204.588800 203.004100 199.981600 198.012900 196.669100 196.388200 195.952400 195.624700 195.312700 195.381300 195.367500 195.169600 194.684100 194.019500 192.491000 191.787900 191.782700 191.591000 191.826400 192.050200 191.803800 192.327400 193.346800 194.079100 195.325700 196.151800 -9999.0 -9999.0 -9999.0 -9999.0 -9999.0 -9999.0 -9999.0 -9999.0 -9999.0 -9999.0 -9999.0 -9999.0 -9999.0 -9999.0 -9999.0 -9999.0 -9999.0 -9999.0 -9999.0 -9999.0 -9999.0
-9999.0 -9999.0 -9999.0 -9999.0 -9999.0 -9999.0 -9999.0 -9999.0 -9999.0 -9999.0 -9999.0 -9999.0 -9999.0 -9999.0 -9999.0 -9999.0 208.094500 207.665800 206.819200 205.968300 204.387600 203.186600 201.039600 199.740200 196.294300 194.059300 193.181100 193.060400 192.419200 191.967500 191.898700 192.190400 192.290400 191.949300 191.677800 191.321900 190.050100 189.557600 189.892000 189.841000 189.892000 190.007700 189.996200 190.739800 191.980500 192.903500 194.176900 194.827400 -9999.0 -9999.0 -9999.0 -9999.0 -9999.0 -9999.0 -9999.0 -9999.0 -9999.0 -9999.0 -9999.0 -9999.0 -9999.0 -9999.0 -9999.0 -9999.0 -9999.0 -9999.0 -9999.0 -9999.0 -9999.0
-9999.0 -9999.0 -9999.0 -9999.0 -9999.0 -9999.0 -9999.0 -9999.0 -9999.0 -9999.0 -9999.0 -9999.0 -9999.0 -9999.0 -9999.0 -9999.0 206.083800 205.727700 204.579900 203.543900 201.921000 200.834500 198.943800 197.110800 193.851000 191.066400 190.950200 190.954700 190.531900 189.995000 189.996100 190.504600 190.646000 189.997000 190.004100 189.970900 189.025000 188.341100 187.350300 187.207800 187.762100 188.370200 189.304900 189.997600 191.261500 192.218500 193.392300 193.887500 194.374000 -9999.0 -9999.0 -9999.0 -9999.0 -9999.0 -9999.0 -9999.0 -9999.0 -9999.0 -9999.0 -9999.0 -9999.0 -9999.0 -9999.0 -9999.0 -9999.0 -9999.0 -9999.0 -9999.0 -9999.0
-9999.0 -9999.0 -9999.0 -9999.0 -9999.0 -9999.0 -9999.0 -9999.0 -9999.0 -9999.0 -9999.0 -9999.0 -9999.0 -9999.0 -9999.0 -9999.0 203.130200 202.788000 201.568600 200.147300 198.421100 196.943300 194.570500 192.987300 191.022600 189.491800 187.786500 188.096400 188.091600 187.696600 187.664600 187.979700 187.969400 187.780700 187.977900 187.933300 187.260400 186.628200 186.399300 187.030800 187.875000 188.271300 188.909200 189.586500 190.575300 191.213700 192.054500 192.317800 192.784800 192.976400 -9999.0 -9999.0 -9999.0 -9999.0 -9999.0 -9999.0 -9999.0 -9999.0 -9999.0 -9999.0 -9999.0 -9999.0 -9999.0 -9999.0 -9999.0 -9999.0 -9999.0 -9999.0 -9999.0
-9999.0 -9999.0 -9999.0 -9999.0 -9999.0 -9999.0 -9999.0 -9999.0 -9999.0 -9999.0 -9999.0 -9999.0 -9999.0 -9999.0 -9999.0 201.265100 201.153800 200.939200 199.821800 197.928900 195.131000 193.636500 191.705700 190.160600 189.322100 187.834100 186.120300 186.368900 186.326000 186.044300 185.956400 186.025500 186.062100 186.217700 186.632900 186.602900 186.159200 185.864600 186.177900 186.820700 187.786100 188.230100 188.669700 189.143100 190.002200 190.412800 191.074300 191.184800 191.658900 191.920000 191.769600 191.273800 190.317000 -9999.0 -9999.0 -9999.0 -9999.0 -9999.0 -9999.0 -9999.0 -9999.0 -9999.0 -9999.0 -9999.0 -9999.0 -9999.0 -9999.0 -9999.0 -9999.0
-9999.0 -9999.0 -9999.0 -9999.0 -9999.0 -9999.0 -9999.0 -9999.0 -9999.0 -9999.0 -9999.0 -9999.0 -9999.0 -9999.0 197.814800 198.653300 198.058100 197.230100 195.396500 193.420700 190.217300 189.882700 188.798400 187.817400 186.808900 185.800900 183.990900 183.976600 183.924600 183.800900 183.872800 183.777200 183.903700 184.377000 184.907800 184.987200 185.130000 185.429000 186.005600 186.579800 187.436500 187.775200 188.088900 188.500100 188.901000 189.105000 189.387400 189.461900 190.003000 190.002000 190.003200 189.957200 188.928200 188.155300 187.235800 -9999.0 -9999.0 -9999.0 -9999.0 -9999.0 -9999.0 -9999.0 -9999.0 -9999.0 -9999.0 -9999.0 -9999.0 -9999.0 -9999.0
-9999.0 -9999.0 -9999.0 -9999.0 -9999.0 -9999.0 -9999.0 -9999.0 -9999.0 -9999.0 -9999.0 -9999.0 -9999.0 195.148700 195.457300 195.568300 194.786800 193.857900 192.243500 190.874200 188.523800 187.849900 186.650700 185.802400 184.883500 184.128500 182.748100 182.470600 182.397900 182.427900 182.810000 182.722600 182.971900 183.542400 184.195900 184.580400 185.228600 185.632500 186.002600 186.467000 187.184300 187.358900 187.843800 187.943700 187.834600 187.863800 187.924100 188.008000 188.396600 188.432700 188.305700 188.010300 187.063000 186.494500 186.070200 186.035900 186.263800 186.503700 -9999.0 -9999.0 -9999.0 -9999.0 -9999.0 -9999.0 -9999.0 -9999.0 -9999.0 -9999.0 -9999.0
-9999.0 -9999.0 -9999.0 -9999.0 -9999.0 -9999.0 -9999.0 -9999.0 -9999.0 -9999.0 -9999.0 -9999.0 192.677900 192.448100 191.776800 191.197900 190.158500 189.857300 188.539700 187.420500 185.740100 184.993000 183.629000 182.691200 181.758800 181.050000 180.664600 180.504300 180.590200 180.874800 181.614300 181.954800 183.021700 183.839100 184.956900 185.450000 186.074000 186.388800 186.493500 186.552900 186.966100 187.048800 186.864700 186.595100 186.053300 185.794800 185.393800 185.144500 185.362100 185.642500 185.481600 184.819000 183.786200 183.572300 183.949700 184.483600 185.473100 186.164100 187.219000 -9999.0 -9999.0 -9999.0 -9999.0 -9999.0 -9999.0 -9999.0 -9999.0 -9999.0 -9999.0
-9999.0 -9999.0 -9999.0 -9999.0 -9999.0 -9999.0 -9999.0 -9999.0 -9999.0 -9999.0 -9999.0 -9999.0 190.865900 190.681700 190.042200 189.368400 188.328900 187.508800 185.921900 184.812100 183.430800 182.962600 181.780700 180.845100 179.999200 179.498100 179.419300 179.702700 180.678400 181.592300 183.090800 183.798200 184.858300 185.504000 186.217800 186.513400 186.952100 187.195700 187.183100 187.003000 186.777300 186.495800 185.940100 185.550900 184.910500 184.515900 183.767500 183.188400 183.143700 183.661700 183.817400 182.980700 181.728200 181.716800 182.564900 183.389000 184.823600 185.802100 187.232400 188.122600 -9999.0 -9999.0 -9999.0 -9999.0 -9999.0 -9999.0 -9999.0 -9999.0 -9999.0
-9999.0 -9999.0 -9999.0 -9999.0 -9999.0 -9999.0 -9999.0 -9999.0 -9999.0 -9999.0 -9999.0 190.013200 189.246200 189.123900 188.314500 187.059200 185.318000 184.150500 182.273100 181.279800 180.062000 180.008300 179.401600 178.569500 177.763000 178.059900 179.992600 181.505500 184.026200 185.792500 187.681100 188.485400 188.808000 188.691500 188.438200 188.256900 188.516400 188.622100 188.239600 187.658800 186.560600 185.782700 184.742700 184.162700 183.434000 182.947400 181.924500 180.905700 180.035300 180.788400 181.575800 180.762400 179.574500 179.970500 180.884900 181.901100 183.758400 185.167700 187.244200 188.429900 189.568600 -9999.0 -9999.0 -9999.0 -9999.0 -9999.0 -9999.0 -9999.0 -9999.0
-9999.0 -9999.0 -9999.0 -9999.0 -9999.0 -9999.0 -9999.0 -9999.0 -9999.0 -9999.0 -9999.0 188.505400 188.152900 187.704900 186.654000 185.427000 183.567400 182.202600 180.473700 179.966000 178.909500 178.314300 177.499800 176.903000 177.542800 179.068200 181.669600 183.602800 186.862200 188.920000 190.237000 191.284400 190.976500 190.060700 189.644500 189.215900 189.573800 189.582400 188.856000 188.039400 186.542400 185.518500 184.236100 183.531600 182.691700 182.193400 181.261000 180.335600 179.035200 179.537500 180.412900 179.549000 178.545600 178.802000 179.995300 180.962900 183.090800 184.766800 187.294900 188.735300 190.002200 -9999.0 -9999.0 -9999.0 -9999.0 -9999.0 -9999.0 -9999.0 -9999.0
-9999.0 -9999.0 -9999.0 -9999.0 -9999.0 -9999.0 -9999.0 -9999.0 -9999.0 -9999.0 -9999.0 186.162600 186.266100 185.865700 184.487300 183.331300 181.210400 179.997200 178.952200 178.262500 177.004200 176.081600 175.474600 176.508900 179.951400 181.568500 184.110700 186.290300 189.898600 191.398600 193.332400 194.440400 193.243000 192.092200 190.745700 190.352700 190.504000 190.423600 189.511400 188.352800 186.466700 185.207200 183.604600 182.802000 181.864400 181.410700 180.703600 179.947500 177.495800 177.336500 177.644800 177.122500 176.580700 177.039400 178.678100 179.997900 182.358500 184.343200 187.392300 189.129100 190.428200 191.123100 192.011000 -9999.0 -9999.0 -9999.0 -9999.0 -9999.0 -9999.0
-9999.0 -9999.0 -9999.0 -9999.0 -9999.0 -9999.0 -9999.0 -9999.0 -9999.0 -9999.0 -9999.0 184.723200 185.076000 184.794500 183.664400 182.602100 180.624200 179.467800 178.278100 177.411500 175.965000 175.010300 175.554900 177.880000 181.008300 182.540100 185.038100 187.077600 190.020600 191.384900 193.125000 194.005500 193.515000 192.639500 191.433800 190.991100 190.841300 190.632400 189.480100 188.194500 186.133400 184.824800 183.102500 182.199100 181.310100 180.924600 179.997800 178.914000 176.576800 175.841100 175.450300 175.090200 175.060500 175.810400 177.865200 179.402200 182.038700 184.136600 187.319100 189.264800 190.739600 191.410000 192.330400 -9999.0 -9999.0 -9999.0 -9999.0 -9999.0 -9999.0
-9999.0 -9999.0 -9999.0 -9999.0 -9999.0 -9999.0 -9999.0 -9999.0 -9999.0 -9999.0 181.905800 182.443300 183.100400 183.189200 182.575400 181.946400 180.538300 179.428300 177.773800 176.669300 174.933300 173.904000 175.281200 177.909800 181.100300 182.777100 185.147600 186.825800 189.057400 189.973700 191.043700 192.044800 192.536000 192.299900 191.704300 191.351400 190.970700 190.666400 189.378400 187.825000 185.335800 183.889600 182.027700 180.992100 179.987200 179.967300 178.795800 177.285400 175.257900 174.079200 173.034500 172.614300 172.894900 174.006400 176.788800 178.924200 181.978500 183.926000 186.820700 188.447100 190.616600 191.688300 192.884900 193.497300 -9999.0 -9999.0 -9999.0 -9999.0 -9999.0
-9999.0 -9999.0 -9999.0 -9999.0 -9999.0 -9999.0 -9999.0 -9999.0 -9999.0 -9999.0 180.695100 181.012600 181.669000 181.971000 181.581600 181.118100 180.340400 179.306400 177.352000 176.128500 173.974300 172.783900 174.562200 177.168200 180.935400 182.411700 184.527300 185.990600 187.985500 188.946300 190.017300 190.996100 191.643700 191.636700 191.391900 191.167900 190.715800 190.363400 189.277600 187.635400 184.949800 183.273300 181.056800 179.977200 178.331500 178.049600 177.164100 176.081100 174.366900 173.127800 171.883400 171.338300 171.493200 172.724200 176.150200 178.787100 181.806400 183.766900 186.850800 188.740900 190.707400 191.890800 193.271800 193.936800 194.576600 -9999.0 -9999.0 -9999.0 -9999.0
-9999.0 -9999.0 -9999.0 -9999.0 -9999.0 -9999.0 -9999.0 -9999.0 -9999.0 175.421300 178.041500 179.074500 179.950500 180.004500 179.943800 179.358000 178.495800 177.556600 175.831800 174.707700 172.575200 171.368200 173.123900 175.839700 179.256100 180.736800 182.799200 184.223300 186.364700 187.751400 189.665400 190.009100 190.399900 190.423100 190.415700 190.393300 190.001100 189.362500 188.152800 186.886400 184.474600 182.712700 179.974200 178.205300 175.994900 175.081600 174.069600 173.423600 172.560600 171.524700 170.307600 169.988600 169.741300 171.192300 175.221000 177.834200 181.097900 183.521800 187.074000 189.128900 191.215700 192.205000 193.644000 194.357600 195.041100 -9999.0 -9999.0 -9999.0 -9999.0
-9999.0 -9999.0 -9999.0 -9999.0 -9999.0 -9999.0 -9999.0 -9999.0 171.027600 172.564600 175.264300 176.693900 177.781400 177.939600 177.843800 177.478900 176.704400 175.838800 174.243100 173.327300 171.729900 170.672700 172.253100 174.672400 177.750400 179.292200 181.346200 182.922400 185.286100 186.759000 188.663000 189.346300 189.604400 189.588500 189.568700 189.556100 189.171300 188.446200 187.201800 186.097200 183.940200 182.365000 180.001700 177.771300 174.787400 173.548200 172.064200 171.291900 171.142600 170.443600 169.529700 169.209000 169.422400 171.007100 175.310400 178.155300 181.239400 183.737400 187.405400 189.295400 191.234600 192.231200 193.596800 194.267600 194.957900 195.436500 -9999.0 -9999.0 -9999.0
-9999.0 -9999.0 -9999.0 -9999.0 -9999.0 -9999.0 -9999.0 169.030700 168.585100 168.557400 170.249600 171.758400 173.084900 173.735100 174.229900 174.042000 173.416000 172.892100 171.438100 170.829300 170.495500 169.377000 170.783400 172.821100 175.648800 177.462400 179.993700 181.553100 183.978500 185.360300 187.109600 187.864200 188.291500 188.282900 188.135700 188.014800 187.537500 186.976700 185.836500 184.762100 182.756400 180.998700 178.808100 176.796100 173.405000 171.681400 170.000200 169.420600 169.152900 168.655100 168.253600 168.316300 169.269400 171.230300 176.240500 179.236400 182.231500 184.512000 188.163900 190.002000 191.244800 192.085200 193.237200 193.810700 194.461200 -9999.0 -9999.0 -9999.0 -9999.0
-9999.0 -9999.0 -9999.0 -9999.0 -9999.0 -9999.0 170.013600 169.054000 166.750500 165.644700 165.498800 166.469300 169.366500 170.908600 171.954500 171.820700 171.127900 170.973200 170.005400 169.301100 168.812000 167.705900 169.789200 171.511100 174.314100 176.424300 179.435100 180.977400 183.420900 184.689100 186.287300 186.986000 187.399100 187.367700 187.120600 186.936500 186.482600 186.002700 185.027600 184.047300 182.254200 180.790200 178.286900 176.143100 172.638800 170.760300 169.189500 168.516000 167.690000 167.236400 167.619900 168.109300 169.922400 171.994000 176.935500 179.984500 182.850200 184.912100 188.246600 189.977900 191.042500 191.842500 192.888900 193.353800 194.068400 -9999.0 -9999.0 -9999.0 -9999.0
-9999.0 -9999.0 -9999.0 -9999.0 -9999.0 174.570900 171.906300 170.079100 166.238100 163.647000 160.049700 159.510000 162.077200 164.355900 167.308000 168.075500 167.561700 167.914500 167.985400 167.212700 165.870600 165.260700 167.477700 169.825100 172.474300 175.015400 178.922200 180.861500 182.886100 183.973100 185.350300 185.887800 186.085600 185.967200 185.632400 185.378600 184.927500 184.490300 183.665800 182.966200 181.562900 180.514800 177.662800 175.185000 171.612500 170.029100 168.574100 167.581100 166.512100 166.385700 167.847400 168.850300 171.238600 173.694900 177.635000 179.992000 183.024200 184.879600 187.671500 189.210100 190.481400 191.352700 192.283800 192.727600 193.418000 193.792100 -9999.0 -9999.0 -9999.0
-9999.0 -9999.0 -9999.0 -9999.0 -9999.0 176.222700 173.227300 171.225600 167.891100 165.059000 161.342300 159.960000 159.227400 160.263900 163.000600 164.300700 164.824000 165.512300 166.147100 165.734500 164.333900 163.727500 166.053100 168.184500 171.437600 174.492600 178.881200 180.747400 182.529300 183.538800 184.798200 185.218300 185.245500 185.060200 184.688700 184.393500 183.930000 183.498900 182.685200 181.992900 180.584900 179.357600 176.577200 174.273800 170.931300 169.620900 168.073200 166.995100 165.885700 166.069200 168.419100 169.538200 172.024000 174.548300 178.365400 180.075000 182.845000 184.447000 186.999200 188.718100 190.385500 191.033700 191.788900 192.269600 192.938100 193.364700 -9999.0 -9999.0 -9999.0
-9999.0 -9999.0 -9999.0 -9999.0 179.999400 178.517400 175.358400 173.282500 170.158400 168.110500 164.591800 162.512100 159.929200 158.631900 158.488700 159.899700 160.830700 162.256100 163.460600 163.313500 162.161900 161.541400 164.659800 167.745700 171.669500 174.793200 178.990600 180.696700 182.103600 182.876400 183.838400 184.142000 184.050300 183.787400 183.303600 182.934800 182.435700 182.093800 181.268100 180.476000 178.883200 177.459600 174.855700 173.040000 170.646000 169.386000 167.471300 166.206700 164.657000 165.466300 169.878600 171.096700 173.147000 175.372400 179.011600 180.463700 182.214700 183.190500 185.340300 187.247000 189.539800 190.313700 190.776200 191.451300 192.216800 192.573200 193.025900 -9999.0 -9999.0
-9999.0 -9999.0 182.983200 182.330000 181.048700 179.908600 176.751800 174.673300 171.738800 169.990300 166.671200 164.390500 161.739600 160.586800 157.728500 157.381000 159.168600 160.746800 161.794300 161.650900 160.559600 160.002900 163.943800 168.057100 172.703500 175.443500 179.130600 180.628400 181.778300 182.431800 183.178300 183.417400 183.278500 182.978900 182.407400 181.974000 181.419000 181.156300 180.415000 179.537700 177.859900 176.422800 174.007600 172.399200 170.382000 169.277000 167.056700 165.709700 164.242800 164.918100 169.987500 171.355900 173.188400 175.177600 178.396300 179.965200 181.293600 181.793900 183.803600 185.685700 188.073600 189.125300 189.988800 190.827000 191.720100 192.083500 192.543500 -9999.0 -9999.0
-9999.0 -9999.0 184.347200 183.507600 182.044300 180.991200 179.063900 176.973500 173.615900 171.560600 168.733000 166.522500 164.022800 162.694600 160.618900 158.527400 156.172200 157.740900 159.822600 159.180200 158.552300 158.431400 163.614200 167.983400 173.139600 175.656600 178.780600 180.004400 180.908100 181.472900 182.104900 182.247400 182.089700 181.780300 181.121000 180.664300 179.997100 179.984100 179.009800 177.978100 176.385100 175.017900 172.776600 171.277300 169.668700 168.477900 166.143700 164.694500 163.014600 163.229300 167.185000 169.112500 172.060200 173.890600 176.521000 177.938300 179.002700 179.425900 181.704700 183.233700 185.147700 186.226300 188.060000 189.428800 190.738800 191.148300 192.025500 -9999.0 -9999.0
-9999.0 186.151300 185.128600 184.143200 182.574100 181.539700 179.935700 177.858100 174.305000 172.042800 169.158100 167.401200 164.989200 163.424200 160.964800 159.283900 155.696500 155.575200 157.033300 156.953800 157.312800 159.020200 163.998400 168.137200 172.842300 175.060300 177.743700 179.074500 180.017400 180.724200 181.356700 181.395900 181.247300 181.019100 180.302000 179.982400 178.993600 178.693200 177.689100 176.724400 175.208300 174.055000 172.030900 170.632100 169.209200 167.913800 165.561200 164.151100 162.500900 162.060900 164.519800 167.221700 170.861500 172.575800 174.718300 175.885700 177.115700 178.397000 180.590000 181.521300 183.322400 184.541500 186.603000 188.086500 189.953700 190.331000 191.763500 192.499000 -9999.0
188.037500 187.509600 186.039500 184.828500 183.040200 181.932200 180.000600 178.226400 174.977200 172.745600 169.988100 168.569300 165.933700 163.929300 160.894500 159.270800 156.555600 154.909200 154.406900 155.223400 157.812500 160.041900 164.917100 168.475900 171.995400 173.669900 175.792100 177.073200 178.635800 179.561700 180.001300 180.000500 180.113400 180.001500 179.315000 178.530200 177.258200 176.647400 175.510900 174.593000 173.151900 172.205400 170.542100 169.565500 168.241800 166.958200 164.790800 163.527000 162.067400 161.306500 161.845900 164.586500 168.986500 170.116000 171.713900 172.910600 174.477300 175.885300 178.042400 179.064800 180.653900 182.193800 184.553600 186.109000 188.357600 189.989800 191.804500 192.659000 -9999.0
189.134500 188.255600 186.467000 185.139800 183.200400 181.987500 179.999000 178.319500 175.315700 173.329200 170.818500 169.166000 166.289800 164.151700 160.908300 159.281000 156.812500 155.005900 153.579500 154.704400 158.435200 160.961600 164.929600 167.963900 171.096600 172.635100 174.476700 175.637000 177.209900 178.046600 178.719200 179.025500 179.448900 179.238100 178.446400 177.660200 176.266600 175.478200 174.127100 173.163100 171.685000 170.777600 169.504100 168.614700 167.416600 166.263300 164.363300 163.161500 161.707600 160.902600 161.085300 163.067200 166.685100 168.140900 169.984400 171.261900 172.711200 174.087600 176.242000 177.658900 179.942800 181.154100 183.620900 185.414500 188.225200 189.999500 191.860400 192.726900 193.537900
189.101100 188.316100 186.613400 185.340100 183.350900 182.015100 179.996800 178.679800 175.913000 173.917800 170.918500 169.259400 166.492500 164.264700 160.966800 159.297800 157.207300 155.051200 152.386400 152.907300 156.851200 159.779100 163.217000 165.855600 169.179100 170.766500 172.642200 173.625900 174.885100 175.570500 176.541400 177.163500 177.621600 177.485700 176.841200 176.228200 174.964200 174.035000 172.439800 171.394100 169.996300 169.052400 167.754300 166.825000 165.719700 165.042300 163.771400 162.732500 161.219800 160.498300 160.280100 161.309000 163.759300 165.148800 167.619100 169.066600 170.553400 172.100700 174.485500 176.253000 178.852700 180.045600 182.847000 184.925500 188.042100 189.941700 191.541300 192.428000 -9999.0
-9999.0 -9999.0 186.404100 185.254200 183.363300 182.093700 180.363600 179.199100 176.309900 174.250700 171.278700 169.925700 166.770000 164.213700 160.578900 159.251700 157.323400 155.286400 152.022700 151.677400 154.860700 157.768200 161.582300 164.088500 167.358400 169.180700 171.370100 172.316700 173.481100 174.175000 175.227700 175.932300 176.431900 176.279700 175.696100 175.187900 174.155100 173.286100 171.740000 170.612900 169.072300 167.992400 166.440800 165.426700 164.306500 163.821800 162.946200 162.276800 160.790500 160.006300 159.634000 160.398300 162.294600 163.563800 166.171700 167.691400 169.956500 171.136800 173.626000 175.497900 178.357200 180.000700 182.535700 184.511900 187.504400 189.255500 191.114000 -9999.0 -9999.0
-9999.0 -9999.0 185.935000 184.862000 183.084100 181.901900 180.376800 179.203400 176.528400 174.644800 171.997000 170.510800 167.500800 164.671500 161.011200 159.099600 156.942400 155.164400 151.633500 150.329500 152.018400 154.667700 158.844700 161.117400 164.371000 166.441600 169.229600 170.068600 171.600200 172.420500 173.620100 174.354100 174.849600 174.635800 173.938800 173.493200 172.772600 172.011900 170.491700 169.504800 167.652200 166.319900 164.562500 163.415300 162.132100 161.724800 161.194000 160.712400 159.959700 159.012300 159.207700 159.997600 162.344400 163.698200 165.329400 166.637600 169.919100 170.560900 172.776000 174.601300 177.649700 179.492600 181.645400 183.296600 186.194000 188.055700 -9999.0 -9999.0 -9999.0
-9999.0 -9999.0 185.632800 184.555300 182.740400 181.470600 179.970100 178.720300 176.402100 174.652300 172.200400 170.785700 167.798900 165.117200 161.173900 158.990300 156.593800 154.904200 151.597700 149.997400 150.563900 152.693600 156.571200 158.895100 162.190100 164.297800 167.197300 168.658200 170.552300 171.471600 172.669000 173.390100 173.864400 173.613000 172.807800 172.318900 171.719400 171.097800 169.542600 168.494500 166.560900 165.177600 163.384400 162.263400 160.929900 160.508000 160.021500 159.568700 158.593400 158.495500 159.522700 160.586300 163.459200 165.283400 166.878400 168.314500 170.607800 171.200500 172.794600 174.257000 176.922100 178.673400 180.614700 182.083100 184.885300 -9999.0 -9999.0 -9999.0 -9999.0
-9999.0 -9999.0 185.210100 184.149400 182.330100 181.112500 179.513800 178.333200 176.144600 174.421000 171.882500 170.429900 167.885300 165.275600 161.215100 158.938500 156.340500 154.762000 152.163100 150.604800 149.357500 150.623400 153.699900 155.835600 158.881100 160.967400 164.021500 166.068500 168.695400 170.001400 171.037000 171.822300 172.281900 172.026300 171.261000 170.716100 170.015900 169.711900 168.471600 167.170100 165.006200 163.597700 161.795100 160.844200 159.674100 159.286300 158.481400 157.927700 158.297100 159.277200 161.412200 162.963700 165.577100 167.423400 170.018000 171.841900 173.683200 174.219100 174.447100 174.861900 176.273300 177.445600 179.000000 180.107800 -9999.0 -9999.0 -9999.0 -9999.0 -9999.0
-9999.0 -9999.0 184.909200 183.916700 182.230700 181.203900 179.975100 178.509900 176.163400 174.467700 171.809000 170.054100 167.729000 165.176100 161.185400 158.944200 156.356200 154.859100 152.615200 151.304600 149.903400 149.205600 152.180000 154.188900 157.154500 159.218400 162.280400 164.515200 167.328000 168.789200 170.000400 170.812100 171.181900 170.996800 170.392500 169.998500 169.206500 168.770500 167.520300 166.255800 164.009900 162.576800 160.861000 159.998200 158.814300 158.313100 157.571600 157.691800 158.883800 159.956300 162.580200 164.690100 167.236600 169.072700 171.901400 173.768000 175.839000 176.501300 176.546200 176.359400 176.625400 177.350900 178.745500 -9999.0 -9999.0 -9999.0 -9999.0 -9999.0 -9999.0
-9999.0 -9999.0 184.376300 183.532600 182.129400 181.348400 179.999100 178.559500 176.108300 174.372500 171.802100 170.479300 167.636100 164.953700 161.069500 159.085900 156.764400 155.318200 153.314600 152.045100 149.977300 148.248400 150.109600 152.277200 155.434100 157.799900 160.912900 162.751800 165.342700 166.784100 168.460600 169.318900 169.737500 169.610400 169.201000 168.834700 167.928800 167.353300 166.121800 164.953500 162.824900 161.339800 159.641900 158.778200 157.486100 156.848000 157.094200 158.164000 160.004100 161.394200 164.443600 166.754500 170.022300 172.153900 175.127000 176.995900 178.965400 179.435200 180.018300 179.305400 178.099000 178.029300 178.628800 -9999.0 -9999.0 -9999.0 -9999.0 -9999.0 -9999.0
-9999.0 -9999.0 184.005700 183.265400 182.010800 181.307300 179.997800 178.527900 175.984500 174.115100 171.248800 169.948200 167.202400 164.805300 161.146700 159.460200 157.356400 155.926500 153.964100 152.601500 150.069500 148.477900 148.788700 150.862900 153.970700 156.549800 160.094000 161.869700 164.270100 165.607800 167.219000 168.020900 168.660200 168.614200 168.222100 167.881400 167.095400 166.447200 165.310800 164.269000 162.396200 161.140100 159.685100 158.496700 156.903600 156.318200 157.629100 159.255800 161.611500 163.328200 166.351900 168.752300 172.625100 174.864600 177.649700 179.148200 181.217100 181.456800 181.893200 180.750100 179.027700 178.604200 -9999.0 -9999.0 -9999.0 -9999.0 -9999.0 -9999.0 -9999.0
-9999.0 -9999.0 183.466500 182.909600 181.829300 181.172300 180.011800 178.897000 176.115700 174.001300 170.864100 169.238900 166.926500 165.078000 162.259600 160.676100 158.406900 157.625300 155.639400 154.081800 151.240500 149.261100 147.212000 148.622300 151.558200 154.501400 158.913400 160.952900 163.058000 164.135500 165.480900 166.176600 166.757700 166.816300 166.552800 166.297700 165.714400 165.202900 164.270100 163.463800 162.077000 161.183400 159.937300 157.888900 155.642000 156.172700 159.168900 160.900800 164.426800 166.609700 170.022700 172.991200 178.050800 180.101200 182.408600 183.878600 185.570800 185.846100 184.896000 183.099100 180.169900 180.009100 -9999.0 -9999.0 -9999.0 -9999.0 -9999.0 -9999.0 -9999.0
-9999.0 -9999.0 183.102600 182.661800 181.702500 181.068200 180.238200 179.263400 176.373100 174.215200 170.985400 169.507500 167.430600 165.691700 162.914900 160.960500 159.991600 159.404800 156.819900 155.064600 152.414700 150.780100 146.844600 147.403500 150.216900 153.439500 158.474000 160.620300 162.234600 163.170700 164.283500 164.884200 165.453300 165.575500 165.412400 165.168100 164.668300 164.265200 163.569200 162.985100 161.832600 160.901200 158.887800 157.021000 155.137900 156.437200 160.001600 162.166000 165.871000 168.379200 172.693400 176.307300 182.166200 184.823800 187.293700 188.099600 188.656000 188.591900 187.409600 186.064000 183.595100 -9999.0 -9999.0 -9999.0 -9999.0 -9999.0 -9999.0 -9999.0 -9999.0
-9999.0 -9999.0 182.481800 182.186700 181.441700 180.790300 179.715300 178.616600 176.430200 174.601200 172.010100 170.625500 168.585300 167.015900 164.576800 163.144400 161.432000 160.011200 157.614100 155.898100 153.625700 152.218300 149.181300 146.118800 148.872800 151.865500 156.258700 158.445900 160.619900 161.450000 162.331000 162.880500 163.510700 163.743300 163.695200 163.436600 162.974300 162.720100 162.394700 162.067200 161.313500 160.501000 157.533800 155.333400 154.505200 156.801300 161.175200 163.665100 168.023700 171.441500 177.934200 182.850800 189.285300 190.968300 192.385900 192.688800 192.251800 191.631500 190.925900 190.107500 188.462400 -9999.0 -9999.0 -9999.0 -9999.0 -9999.0 -9999.0 -9999.0 -9999.0
-9999.0 -9999.0 -9999.0 181.798100 181.255600 180.732900 179.521200 178.308800 176.143600 174.596000 172.254000 170.722400 169.174000 167.817500 165.258900 163.585400 161.314200 160.008200 157.606300 155.914300 153.769500 152.468100 149.916300 146.504900 147.809700 150.878100 154.393100 156.604200 159.329900 160.049300 161.010200 161.644000 162.329700 162.604900 162.599600 162.321100 161.806100 161.654700 161.546800 161.291900 160.525200 159.296600 156.008600 154.005100 154.413900 156.906900 161.442800 164.435300 169.815400 174.797800 182.753000 187.762800 192.436100 193.546500 194.892600 194.919600 194.111600 193.391200 192.419900 191.617700 -9999.0 -9999.0 -9999.0 -9999.0 -9999.0 -9999.0 -9999.0 -9999.0 -9999.0
-9999.0 -9999.0 -9999.0 181.139300 180.820400 180.524400 179.341600 177.864300 175.752300 174.457800 172.598600 171.458200 170.023100 168.761800 165.367400 163.129300 160.044100 159.122200 157.150400 155.564800 153.461000 152.159500 149.784200 146.559400 145.586500 147.754400 151.115500 153.513300 156.576500 157.990900 159.507900 160.027600 160.817400 161.090600 161.093200 160.887100 160.016100 159.998300 160.001000 159.960400 158.618800 156.848300 153.815200 152.916700 155.052700 157.758800 161.722200 165.362900 173.114800 179.942000 188.410200 192.314600 195.828700 197.030200 198.326900 197.555200 195.703800 194.713900 193.464500 -9999.0 -9999.0 -9999.0 -9999.0 -9999.0 -9999.0 -9999.0 -9999.0 -9999.0 -9999.0
-9999.0 -9999.0 -9999.0 180.701700 180.306100 179.999600 178.681700 177.422400 175.632500 174.527300 172.871300 171.769200 170.327200 168.924300 165.296800 163.109000 160.060700 158.982300 157.031600 155.477100 153.200500 151.729000 148.919900 146.253000 144.672300 146.165000 149.794500 151.811000 154.664200 156.189500 157.905500 158.698500 159.965100 160.001000 160.000500 160.003700 159.230800 158.753700 158.352900 158.030900 156.586300 154.926700 152.653400 152.697800 155.841900 158.695200 162.615600 166.281800 174.869900 182.239200 190.375600 193.560400 196.395400 -9999.0 -9999.0 -9999.0 -9999.0 -9999.0 -9999.0 -9999.0 -9999.0 -9999.0 -9999.0 -9999.0 -9999.0 -9999.0 -9999.0 -9999.0 -9999.0
-9999.0 -9999.0 -9999.0 180.416200 179.716400 179.146600 178.160400 177.397400 176.247600 175.323100 173.537300 172.153000 169.983800 168.455000 165.922600 164.258100 161.674100 160.007800 157.671800 155.706000 152.645500 151.020000 148.892000 146.337600 143.921800 144.361500 146.973400 148.999100 151.876300 153.460100 155.124100 156.002900 157.259400 157.565200 157.845500 157.871300 157.205500 156.495100 155.441500 154.756200 153.360800 152.165500 151.590700 153.350600 157.328400 159.981200 164.229600 167.963700 177.048400 184.066400 191.603300 193.406000 194.478600 -9999.0 -9999.0 -9999.0 -9999.0 -9999.0 -9999.0 -9999.0 -9999.0 -9999.0 -9999.0 -9999.0 -9999.0 -9999.0 -9999.0 -9999.0 -9999.0
-9999.0 -9999.0 -9999.0 -9999.0 179.827800 179.421100 178.786700 178.291100 177.343300 176.408600 174.402100 172.851000 170.564700 169.300800 167.158300 165.547500 162.687100 160.818200 158.272800 156.029900 152.207300 150.043400 148.654600 146.680500 143.843800 143.460500 145.106100 146.956600 149.995500 151.739500 153.179800 153.911000 155.366800 155.938100 156.283400 156.307000 155.711000 154.966500 153.623200 152.818500 151.642200 150.916700 152.177900 154.701300 158.866200 161.125900 165.908800 169.792500 178.850600 184.441300 190.608000 192.153500 -9999.0 -9999.0 -9999.0 -9999.0 -9999.0 -9999.0 -9999.0 -9999.0 -9999.0 -9999.0 -9999.0 -9999.0 -9999.0 -9999.0 -9999.0 -9999.0 -9999.0
-9999.0 -9999.0 -9999.0 -9999.0 -9999.0 -9999.0 180.134700 180.060000 179.356200 178.359700 176.075400 174.416800 172.312200 171.167200 169.364300 167.474000 163.718600 161.350300 159.158900 156.991500 153.030200 150.701000 149.097800 147.629600 144.563100 143.044500 142.856800 143.992800 146.804900 148.946300 150.005000 150.735500 152.809300 153.549500 153.767900 153.821200 153.512500 152.964600 151.367900 150.068500 149.969300 150.454000 154.453000 157.264300 160.850600 163.430500 168.263300 171.803500 177.726800 181.583900 186.224200 187.801900 188.435700 -9999.0 -9999.0 -9999.0 -9999.0 -9999.0 -9999.0 -9999.0 -9999.0 -9999.0 -9999.0 -9999.0 -9999.0 -9999.0 -9999.0 -9999.0 -9999.0
-9999.0 -9999.0 -9999.0 -9999.0 -9999.0 -9999.0 -9999.0 180.750800 180.430100 179.450400 177.078500 175.360400 173.183000 171.949300 170.011900 168.098900 164.136100 161.283400 159.313900 157.852300 154.245800 152.069600 149.363300 148.194300 145.476900 143.542100 141.986100 142.287400 144.254500 146.031600 147.926600 149.212600 151.365400 151.919900 151.977400 152.105700 151.856300 151.621600 149.939700 148.403000 149.188200 151.064300 155.631400 158.559400 161.802600 164.313800 168.485400 170.984800 175.670200 178.592500 181.487700 183.009500 184.720800 -9999.0 -9999.0 -9999.0 -9999.0 -9999.0 -9999.0 -9999.0 -9999.0 -9999.0 -9999.0 -9999.0 -9999.0 -9999.0 -9999.0 -9999.0 -9999.0
-9999.0 -9999.0 -9999.0 -9999.0 -9999.0 -9999.0 -9999.0 -9999.0 181.096200 180.158500 177.946100 176.291200 173.979800 172.443200 169.995400 168.260500 165.222400 163.099200 160.809200 158.975000 155.181000 152.719400 149.991400 149.105400 146.975400 144.974200 142.182600 141.043500 141.050200 141.893900 144.357600 146.197800 148.589000 148.893800 149.150800 150.003300 149.156200 148.767400 146.782100 146.956000 149.874600 152.201900 157.293700 159.881200 162.692400 164.893700 167.993100 169.920600 172.858900 175.090600 177.830900 179.055100 180.154400 -9999.0 -9999.0 -9999.0 -9999.0 -9999.0 -9999.0 -9999.0 -9999.0 -9999.0 -9999.0 -9999.0 -9999.0 -9999.0 -9999.0 -9999.0 -9999.0
-9999.0 -9999.0 -9999.0 -9999.0 -9999.0 -9999.0 -9999.0 -9999.0 180.157500 179.606500 177.892200 176.475600 174.279900 172.687000 170.042600 168.650200 166.002900 163.794300 160.907700 158.925800 155.398100 153.318000 150.951100 149.967700 147.685800 145.856800 142.945500 141.325000 140.077500 140.027800 141.929100 143.522100 145.804800 146.446200 147.051700 147.608300 146.933200 146.111600 145.223900 146.991000 150.897400 153.565300 158.484200 160.587200 162.944200 164.831500 167.505900 169.134500 171.643200 173.619000 176.137800 177.368000 -9999.0 -9999.0 -9999.0 -9999.0 -9999.0 -9999.0 -9999.0 -9999.0 -9999.0 -9999.0 -9999.0 -9999.0 -9999.0 -9999.0 -9999.0 -9999.0 -9999.0
-9999.0 -9999.0 -9999.0 -9999.0 -9999.0 -9999.0 -9999.0 -9999.0 -9999.0 177.808200 176.813600 175.852700 174.186400 172.969900 171.290500 170.390000 166.961900 163.485700 159.918400 158.244400 155.702300 154.213300 151.894100 150.434000 148.307800 146.711500 144.169100 142.373400 139.999400 139.619500 139.686200 140.070900 142.206300 142.819200 143.425100 143.472600 143.170700 142.947100 145.228500 148.355000 151.981800 154.600900 158.383900 160.007100 162.125900 163.809200 166.163000 167.583900 170.029100 171.593300 173.770100 174.903600 -9999.0 -9999.0 -9999.0 -9999.0 -9999.0 -9999.0 -9999.0 -9999.0 -9999.0 -9999.0 -9999.0 -9999.0 -9999.0 -9999.0 -9999.0 -9999.0 -9999.0
-9999.0 -9999.0 -9999.0 -9999.0 -9999.0 -9999.0 -9999.0 -9999.0 -9999.0 176.272800 175.542000 174.737400 173.451900 172.498500 171.065900 170.011700 166.750600 163.237600 159.463500 158.337600 156.738400 155.359800 152.764700 150.925400 148.846100 147.400300 145.020100 143.079100 140.054800 139.437900 139.320100 139.361600 140.047100 140.599400 141.291500 140.957800 141.299700 142.026200 146.414300 149.770800 152.468200 154.672200 157.618900 159.064900 161.173000 162.662100 164.633500 165.994400 168.351700 169.997900 172.164200 -9999.0 -9999.0 -9999.0 -9999.0 -9999.0 -9999.0 -9999.0 -9999.0 -9999.0 -9999.0 -9999.0 -9999.0 -9999.0 -9999.0 -9999.0 -9999.0 -9999.0 -9999.0
-9999.0 -9999.0 -9999.0 -9999.0 -9999.0 -9999.0 -9999.0 -9999.0 -9999.0 174.049300 173.247600 172.655900 171.728900 170.940500 169.606600 168.842600 166.348400 164.099200 161.240000 160.042700 159.446000 157.683300 154.572400 152.687000 150.624000 149.304000 146.941800 144.954000 141.803200 140.046100 139.073300 138.961200 138.994600 139.260300 139.655100 139.560400 140.003700 141.420700 147.862900 150.620200 152.787100 154.355000 156.551000 157.813900 159.561000 160.948900 162.180100 163.228700 165.581300 167.450000 -9999.0 -9999.0 -9999.0 -9999.0 -9999.0 -9999.0 -9999.0 -9999.0 -9999.0 -9999.0 -9999.0 -9999.0 -9999.0 -9999.0 -9999.0 -9999.0 -9999.0 -9999.0 -9999.0
-9999.0 -9999.0 -9999.0 -9999.0 -9999.0 -9999.0 -9999.0 -9999.0 -9999.0 172.678500 171.709000 171.211000 170.558600 170.003300 168.826500 167.981300 166.106400 164.513900 162.331100 161.268100 160.009000 158.506500 155.591200 153.766100 151.759400 150.621500 148.520200 146.699700 143.443800 141.453000 139.334200 138.820700 138.786200 138.938000 139.170700 139.293300 139.747600 141.297600 147.854200 150.493100 152.464000 153.765400 155.744300 156.996300 158.829800 159.606600 160.651600 161.554500 163.795700 165.641400 -9999.0 -9999.0 -9999.0 -9999.0 -9999.0 -9999.0 -9999.0 -9999.0 -9999.0 -9999.0 -9999.0 -9999.0 -9999.0 -9999.0 -9999.0 -9999.0 -9999.0 -9999.0 -9999.0
-9999.0 -9999.0 -9999.0 -9999.0 -9999.0 -9999.0 -9999.0 -9999.0 170.900100 170.864700 169.999300 169.526700 169.158300 168.546400 167.454700 166.574700 164.828700 163.482000 161.710700 160.855900 159.991600 158.800400 156.468600 154.855500 152.999900 152.053000 150.577800 149.312300 145.950400 143.830100 141.380100 139.777100 138.472600 138.599200 138.716100 139.024600 139.651600 141.295500 146.334400 149.242200 151.359900 152.491700 154.308200 155.530400 157.170300 158.084000 159.274600 160.015300 161.872400 163.443400 -9999.0 -9999.0 -9999.0 -9999.0 -9999.0 -9999.0 -9999.0 -9999.0 -9999.0 -9999.0 -9999.0 -9999.0 -9999.0 -9999.0 -9999.0 -9999.0 -9999.0 -9999.0 -9999.0
-9999.0 -9999.0 -9999.0 -9999.0 -9999.0 -9999.0 -9999.0 -9999.0 169.982800 169.976100 169.098700 168.485900 167.871000 167.358300 166.399700 165.436200 163.394600 161.902400 160.394000 159.987500 159.366100 158.529500 156.675200 155.286000 153.550600 152.598100 151.156100 150.000200 146.771900 144.712600 141.925600 139.990600 138.264000 138.354200 138.592500 138.965900 140.056900 142.158400 145.889600 148.343300 150.675300 151.878800 153.622900 154.787800 156.405600 157.381900 158.804900 159.687000 161.261600 -9999.0 -9999.0 -9999.0 -9999.0 -9999.0 -9999.0 -9999.0 -9999.0 -9999.0 -9999.0 -9999.0 -9999.0 -9999.0 -9999.0 -9999.0 -9999.0 -9999.0 -9999.0 -9999.0 -9999.0
-9999.0 -9999.0 -9999.0 -9999.0 -9999.0 -9999.0 -9999.0 167.533600 167.925800 167.803800 167.035300 166.449100 165.752300 165.418100 164.736800 163.864700 161.751400 160.025800 159.218400 158.731000 157.968700 157.402100 156.288700 155.307100 153.805400 152.826800 151.292800 150.002100 147.149000 144.947600 141.835100 140.003500 138.065100 137.947900 138.655100 139.401900 142.606600 146.006600 149.553600 150.286900 152.099000 152.813500 153.922600 154.781000 156.273600 157.424700 158.950600 159.623900 161.300300 -9999.0 -9999.0 -9999.0 -9999.0 -9999.0 -9999.0 -9999.0 -9999.0 -9999.0 -9999.0 -9999.0 -9999.0 -9999.0 -9999.0 -9999.0 -9999.0 -9999.0 -9999.0 -9999.0 -9999.0
-9999.0 -9999.0 -9999.0 -9999.0 -9999.0 -9999.0 -9999.0 166.343400 166.399600 166.190200 165.469300 164.942400 164.315700 164.039000 163.617600 162.998700 161.587200 160.356900 158.971400 158.039600 156.931300 156.352900 155.515500 154.745300 153.396000 152.513900 151.096400 149.998800 146.866600 144.502500 141.330000 139.945900 137.868900 138.064600 139.230700 140.229200 145.902700 149.872200 153.173100 154.192200 154.820000 154.794900 155.016500 155.513400 156.756100 157.976700 159.969400 160.544100 162.111800 -9999.0 -9999.0 -9999.0 -9999.0 -9999.0 -9999.0 -9999.0 -9999.0 -9999.0 -9999.0 -9999.0 -9999.0 -9999.0 -9999.0 -9999.0 -9999.0 -9999.0 -9999.0 -9999.0 -9999.0
-9999.0 -9999.0 -9999.0 -9999.0 -9999.0 -9999.0 -9999.0 164.592800 164.202500 163.837000 163.147700 162.644700 162.280100 162.148500 161.638400 161.050500 159.958900 159.337200 157.945900 156.817000 155.358300 154.686800 153.962100 153.330500 152.066300 151.304400 150.003200 148.637300 145.522300 143.206700 140.078000 138.632600 137.361800 137.896900 141.308000 145.266800 151.882900 155.513700 158.925800 159.967000 159.017100 158.282900 157.170200 157.078000 157.955700 158.765600 161.528000 163.206600 164.282100 -9999.0 -9999.0 -9999.0 -9999.0 -9999.0 -9999.0 -9999.0 -9999.0 -9999.0 -9999.0 -9999.0 -9999.0 -9999.0 -9999.0 -9999.0 -9999.0 -9999.0 -9999.0 -9999.0 -9999.0
-9999.0 -9999.0 -9999.0 -9999.0 -9999.0 -9999.0 -9999.0 163.393700 162.808500 162.367700 161.726800 161.138200 161.019600 161.153500 160.433700 159.946600 158.500000 157.859900 156.651200 155.673400 154.245900 153.551600 152.907500 152.355700 151.014100 150.036300 148.614900 146.991300 144.172100 142.119300 139.325300 137.640000 137.415000 138.958900 144.898200 149.699700 155.487300 158.667300 161.560700 162.077700 161.055300 160.032200 158.631100 158.112500 159.291100 160.327300 163.364100 165.091000 165.969400 -9999.0 -9999.0 -9999.0 -9999.0 -9999.0 -9999.0 -9999.0 -9999.0 -9999.0 -9999.0 -9999.0 -9999.0 -9999.0 -9999.0 -9999.0 -9999.0 -9999.0 -9999.0 -9999.0 -9999.0
-9999.0 -9999.0 -9999.0 -9999.0 -9999.0 -9999.0 -9999.0 161.717100 160.715700 160.393600 159.921200 158.731700 158.708900 158.725500 157.843900 157.058400 155.877100 155.346200 154.533400 153.714900 152.353300 151.662200 151.363300 151.042200 149.999000 148.575300 146.126100 144.409800 142.059500 140.626900 137.789500 136.846000 139.114400 143.719500 151.702900 155.458700 160.075100 162.847100 165.271000 165.459300 164.164100 162.591600 159.997100 159.460000 160.926700 163.808500 167.581500 168.777300 -9999.0 -9999.0 -9999.0 -9999.0 -9999.0 -9999.0 -9999.0 -9999.0 -9999.0 -9999.0 -9999.0 -9999.0 -9999.0 -9999.0 -9999.0 -9999.0 -9999.0 -9999.0 -9999.0 -9999.0 -9999.0
-9999.0 -9999.0 -9999.0 -9999.0 -9999.0 -9999.0 -9999.0 160.819000 159.538700 159.161500 157.931300 156.637900 155.678200 155.377100 154.718300 154.343400 153.678300 153.495500 153.241100 152.493900 151.066000 150.369400 150.439400 150.026400 148.920700 147.446600 144.911000 143.064100 140.645400 139.283100 136.825300 137.147700 142.035500 147.650500 154.980700 158.587500 163.295800 165.999900 167.826000 167.659700 165.565900 163.654200 161.165300 160.730400 162.790400 165.741300 170.353300 171.559900 -9999.0 -9999.0 -9999.0 -9999.0 -9999.0 -9999.0 -9999.0 -9999.0 -9999.0 -9999.0 -9999.0 -9999.0 -9999.0 -9999.0 -9999.0 -9999.0 -9999.0 -9999.0 -9999.0 -9999.0 -9999.0
-9999.0 -9999.0 -9999.0 -9999.0 -9999.0 -9999.0 -9999.0 159.708900 158.252900 157.227500 155.437100 153.957500 151.964600 150.970500 150.018300 149.910000 149.944700 150.794100 151.599700 150.662800 149.391900 148.416800 148.241900 147.970700 146.661800 145.338300 143.203900 141.746700 139.079300 137.385300 136.632900 139.594300 146.817100 151.915300 158.314000 162.226400 167.394200 170.036700 170.878900 169.965300 166.960100 164.998900 163.331900 163.454600 165.454300 167.681600 171.270300 -9999.0 -9999.0 -9999.0 -9999.0 -9999.0 -9999.0 -9999.0 -9999.0 -9999.0 -9999.0 -9999.0 -9999.0 -9999.0 -9999.0 -9999.0 -9999.0 -9999.0 -9999.0 -9999.0 -9999.0 -9999.0 -9999.0
-9999.0 -9999.0 -9999.0 -9999.0 -9999.0 -9999.0 -9999.0 158.821600 157.671100 156.720500 154.672200 153.026500 150.778200 149.450800 147.996000 147.352000 147.145000 148.796500 149.977900 149.144500 147.535100 146.732600 146.310700 146.022000 144.820500 143.584700 141.475700 140.103900 138.155400 136.365600 137.338300 140.704500 148.467400 153.052700 159.925400 163.748100 168.715400 171.097400 171.343400 170.012000 167.592400 165.937000 164.780500 165.168800 166.857500 168.428500 170.421100 -9999.0 -9999.0 -9999.0 -9999.0 -9999.0 -9999.0 -9999.0 -9999.0 -9999.0 -9999.0 -9999.0 -9999.0 -9999.0 -9999.0 -9999.0 -9999.0 -9999.0 -9999.0 -9999.0 -9999.0 -9999.0 -9999.0
-9999.0 -9999.0 -9999.0 -9999.0 -9999.0 -9999.0 -9999.0 158.024500 157.667300 157.259600 155.498700 153.254100 150.052000 149.978100 150.105000 150.382300 146.346500 144.796700 144.553400 144.644000 144.107300 143.689900 143.356000 143.071200 142.106100 141.127800 139.429200 138.214700 136.239400 135.577900 138.196900 142.304900 149.996900 154.297100 160.081500 164.008000 168.699900 170.595700 170.327500 169.851100 168.620600 167.609300 166.973200 167.471300 168.590700 169.221800 -9999.0 -9999.0 -9999.0 -9999.0 -9999.0 -9999.0 -9999.0 -9999.0 -9999.0 -9999.0 -9999.0 -9999.0 -9999.0 -9999.0 -9999.0 -9999.0 -9999.0 -9999.0 -9999.0 -9999.0 -9999.0 -9999.0 -9999.0
-9999.0 -9999.0 -9999.0 -9999.0 -9999.0 -9999.0 -9999.0 158.101300 158.234200 158.261900 157.001800 154.996400 152.671000 152.316800 152.218300 151.136800 147.460300 145.471600 142.790900 142.294400 141.920600 141.668100 141.479100 141.221600 140.569500 139.970100 138.542600 137.377300 135.539500 135.386500 138.245600 142.342700 150.002800 154.289800 160.052700 163.326600 167.261900 169.008400 169.610400 169.718800 169.309700 168.802400 168.350500 168.915100 169.623400 170.011300 -9999.0 -9999.0 -9999.0 -9999.0 -9999.0 -9999.0 -9999.0 -9999.0 -9999.0 -9999.0 -9999.0 -9999.0 -9999.0 -9999.0 -9999.0 -9999.0 -9999.0 -9999.0 -9999.0 -9999.0 -9999.0 -9999.0 -9999.0
-9999.0 -9999.0 -9999.0 -9999.0 -9999.0 -9999.0 -9999.0 -9999.0 159.484200 159.757500 159.375500 157.967300 156.191200 155.675400 153.853400 151.396200 148.580500 146.555100 142.955100 141.057900 139.744900 139.550800 139.544300 139.371100 138.686400 138.265900 137.179800 136.220300 134.837200 135.363600 138.422500 141.976300 148.643700 152.716100 158.795700 161.143900 164.650200 166.473100 168.288500 169.160800 170.002900 170.249300 170.037900 170.746800 171.740900 172.168200 -9999.0 -9999.0 -9999.0 -9999.0 -9999.0 -9999.0 -9999.0 -9999.0 -9999.0 -9999.0 -9999.0 -9999.0 -9999.0 -9999.0 -9999.0 -9999.0 -9999.0 -9999.0 -9999.0 -9999.0 -9999.0 -9999.0 -9999.0
-9999.0 -9999.0 -9999.0 -9999.0 -9999.0 -9999.0 -9999.0 -9999.0 160.684400 160.636300 160.422500 159.402600 158.110000 157.374800 154.819500 152.256400 149.448200 147.629200 144.025700 141.831500 139.667300 139.106400 138.746900 138.375800 137.683600 137.310000 136.265000 135.330500 134.603300 135.571700 138.627200 141.473200 147.767500 151.836900 157.017700 159.913800 163.451500 165.517700 167.990600 169.281000 170.780200 171.401200 171.885300 172.561200 173.621500 -9999.0 -9999.0 -9999.0 -9999.0 -9999.0 -9999.0 -9999.0 -9999.0 -9999.0 -9999.0 -9999.0 -9999.0 -9999.0 -9999.0 -9999.0 -9999.0 -9999.0 -9999.0 -9999.0 -9999.0 -9999.0 -9999.0 -9999.0 -9999.0
-9999.0 -9999.0 -9999.0 -9999.0 -9999.0 -9999.0 -9999.0 -9999.0 163.014500 162.931300 162.164600 161.296400 160.503900 159.419900 156.366500 153.808200 150.577800 148.949300 145.746000 143.609300 140.599700 139.381100 138.329100 137.705600 136.830000 136.335300 135.302700 134.482000 134.668300 135.912600 138.329300 140.100600 147.303300 151.885400 156.956600 159.968700 163.489800 165.855700 169.207700 170.683500 172.873600 174.112600 175.302300 175.878400 176.481400 -9999.0 -9999.0 -9999.0 -9999.0 -9999.0 -9999.0 -9999.0 -9999.0 -9999.0 -9999.0 -9999.0 -9999.0 -9999.0 -9999.0 -9999.0 -9999.0 -9999.0 -9999.0 -9999.0 -9999.0 -9999.0 -9999.0 -9999.0 -9999.0
-9999.0 -9999.0 -9999.0 -9999.0 -9999.0 -9999.0 -9999.0 -9999.0 164.456500 164.432600 163.713900 162.995700 161.612700 160.078200 157.272400 154.857800 151.201600 149.399800 146.716000 144.620200 141.528000 140.000700 138.811900 138.101200 136.931400 136.170300 134.988400 134.306600 134.512400 135.748600 137.804000 140.020000 147.228900 152.094700 157.400400 160.012400 164.232500 166.917700 170.117600 172.073400 174.559300 175.914200 177.726200 178.551300 178.601300 -9999.0 -9999.0 -9999.0 -9999.0 -9999.0 -9999.0 -9999.0 -9999.0 -9999.0 -9999.0 -9999.0 -9999.0 -9999.0 -9999.0 -9999.0 -9999.0 -9999.0 -9999.0 -9999.0 -9999.0 -9999.0 -9999.0 -9999.0 -9999.0
-9999.0 -9999.0 -9999.0 -9999.0 -9999.0 -9999.0 -9999.0 -9999.0 166.392000 166.686200 166.422700 165.929500 164.180900 162.147200 159.042000 156.989300 153.529000 151.245900 148.396400 146.578700 143.533100 141.454000 139.601300 138.852900 137.659300 136.780900 135.149200 134.094800 133.948000 135.155400 137.862500 140.457800 148.058900 152.872600 158.615600 161.301200 165.815200 168.710100 171.430300 173.268200 176.072300 177.708300 180.779100 185.281900 -9999.0 -9999.0 -9999.0 -9999.0 -9999.0 -9999.0 -9999.0 -9999.0 -9999.0 -9999.0 -9999.0 -9999.0 -9999.0 -9999.0 -9999.0 -9999.0 -9999.0 -9999.0 -9999.0 -9999.0 -9999.0 -9999.0 -9999.0 -9999.0 -9999.0
-9999.0 -9999.0 -9999.0 -9999.0 -9999.0 -9999.0 -9999.0 -9999.0 -9999.0 168.164400 168.299300 168.081200 166.586600 164.573400 161.111200 158.954800 155.619800 153.176100 150.003400 148.266100 145.334700 143.112800 140.554600 139.573200 138.122800 137.195900 135.398200 134.147700 133.449400 134.723700 138.273800 141.907500 149.753800 154.463900 159.792500 162.243000 166.429600 168.939800 171.221300 172.998500 176.017900 177.955100 181.926500 -9999.0 -9999.0 -9999.0 -9999.0 -9999.0 -9999.0 -9999.0 -9999.0 -9999.0 -9999.0 -9999.0 -9999.0 -9999.0 -9999.0 -9999.0 -9999.0 -9999.0 -9999.0 -9999.0 -9999.0 -9999.0 -9999.0 -9999.0 -9999.0 -9999.0 -9999.0
-9999.0 -9999.0 -9999.0 -9999.0 -9999.0 -9999.0 -9999.0 -9999.0 -9999.0 170.064800 170.840100 170.777700 169.920000 168.101900 164.457600 162.119700 158.960900 156.472700 152.811000 150.761600 147.840000 145.535800 142.094900 140.066100 138.714500 137.707600 135.592600 134.216100 133.009300 134.517000 138.893400 143.344600 151.800000 156.813900 161.348300 163.368100 165.910300 167.551900 169.916200 171.578600 174.617800 176.484800 179.028700 180.181700 -9999.0 -9999.0 -9999.0 -9999.0 -9999.0 -9999.0 -9999.0 -9999.0 -9999.0 -9999.0 -9999.0 -9999.0 -9999.0 -9999.0 -9999.0 -9999.0 -9999.0 -9999.0 -9999.0 -9999.0 -9999.0 -9999.0 -9999.0 -9999.0 -9999.0
-9999.0 -9999.0 -9999.0 -9999.0 -9999.0 -9999.0 -9999.0 -9999.0 -9999.0 -9999.0 172.629300 172.407700 170.962500 169.338000 166.298000 163.845600 160.165500 158.075200 154.393500 151.908600 148.939500 146.745400 143.086700 140.807300 139.079300 138.017400 135.260400 133.461000 132.965400 134.844500 139.996300 144.624900 152.502700 156.775800 161.258300 162.505000 164.062500 165.729100 168.206800 169.930200 173.036800 174.696200 176.472100 177.047700 177.063900 176.153300 -9999.0 -9999.0 -9999.0 -9999.0 -9999.0 -9999.0 -9999.0 -9999.0 -9999.0 -9999.0 -9999.0 -9999.0 -9999.0 -9999.0 -9999.0 -9999.0 -9999.0 -9999.0 -9999.0 -9999.0 -9999.0 -9999.0 -9999.0
-9999.0 -9999.0 -9999.0 -9999.0 -9999.0 -9999.0 -9999.0 -9999.0 -9999.0 -9999.0 175.635400 175.209100 173.458800 171.847100 168.597100 166.046600 162.115500 160.014100 156.850400 153.986800 150.127500 148.283400 144.611800 142.086800 139.600500 138.285600 134.667700 132.667900 133.066500 135.130100 139.767300 143.456800 149.904700 152.882500 157.413700 158.357700 160.002400 162.182300 164.785900 166.582100 170.006200 171.384800 172.536000 172.765600 173.111200 172.858400 -9999.0 -9999.0 -9999.0 -9999.0 -9999.0 -9999.0 -9999.0 -9999.0 -9999.0 -9999.0 -9999.0 -9999.0 -9999.0 -9999.0 -9999.0 -9999.0 -9999.0 -9999.0 -9999.0 -9999.0 -9999.0 -9999.0 -9999.0
-9999.0 -9999.0 -9999.0 -9999.0 -9999.0 -9999.0 -9999.0 -9999.0 -9999.0 -9999.0 177.777500 177.179700 175.106500 172.935200 169.328600 167.375200 163.719500 161.620500 158.429000 155.395200 151.267500 149.273800 145.825600 143.427200 140.145400 138.483500 134.236800 132.180500 133.073000 135.049100 138.612400 141.169400 146.309800 148.939200 153.029700 154.929900 157.696500 159.979500 162.300700 164.166800 167.642400 169.228000 170.016200 170.000500 170.759600 171.017000 169.966200 -9999.0 -9999.0 -9999.0 -9999.0 -9999.0 -9999.0 -9999.0 -9999.0 -9999.0 -9999.0 -9999.0 -9999.0 -9999.0 -9999.0 -9999.0 -9999.0 -9999.0 -9999.0 -9999.0 -9999.0 -9999.0 -9999.0
-9999.0 -9999.0 -9999.0 -9999.0 -9999.0 -9999.0 -9999.0 -9999.0 -9999.0 -9999.0 180.750300 179.870300 177.400200 174.968200 171.204500 169.012200 165.302200 162.570600 159.008600 156.783300 153.056900 150.748700 147.334300 144.903900 141.380500 139.094800 133.961800 131.612200 132.950400 134.986700 138.127400 139.666400 142.975300 145.751400 149.063200 150.924600 153.979400 156.164400 158.869600 160.334200 163.780200 165.300700 166.231400 166.496900 167.335500 167.718800 167.474100 167.134600 -9999.0 -9999.0 -9999.0 -9999.0 -9999.0 -9999.0 -9999.0 -9999.0 -9999.0 -9999.0 -9999.0 -9999.0 -9999.0 -9999.0 -9999.0 -9999.0 -9999.0 -9999.0 -9999.0 -9999.0 -9999.0
-9999.0 -9999.0 -9999.0 -9999.0 -9999.0 -9999.0 -9999.0 -9999.0 -9999.0 -9999.0 183.165500 180.988400 178.313800 175.778000 171.794600 169.887700 166.067300 163.221500 159.874100 157.837000 154.069200 151.276500 147.954300 145.860000 142.473900 139.962000 134.179000 131.363600 132.745800 134.991500 138.573000 140.051100 142.770300 144.990900 147.858600 149.330000 151.754000 153.752700 156.666400 158.877200 161.435700 162.569700 163.577700 164.035600 164.696200 165.003300 165.172600 165.243900 -9999.0 -9999.0 -9999.0 -9999.0 -9999.0 -9999.0 -9999.0 -9999.0 -9999.0 -9999.0 -9999.0 -9999.0 -9999.0 -9999.0 -9999.0 -9999.0 -9999.0 -9999.0 -9999.0 -9999.0 -9999.0
-9999.0 -9999.0 -9999.0 -9999.0 -9999.0 -9999.0 -9999.0 -9999.0 -9999.0 -9999.0 187.617700 184.188600 179.179300 176.630900 172.586800 170.115300 167.195700 164.680500 161.405300 159.888500 156.208600 153.301200 149.999500 147.959100 144.191300 141.444400 135.101200 131.457900 131.924500 134.453600 138.850500 140.788000 142.924600 144.462400 146.552100 147.662800 149.320300 150.834700 153.479900 155.422100 157.885400 158.696100 160.003300 160.672100 161.074600 161.093000 161.779900 162.384400 163.211500 163.652300 -9999.0 -9999.0 -9999.0 -9999.0 -9999.0 -9999.0 -9999.0 -9999.0 -9999.0 -9999.0 -9999.0 -9999.0 -9999.0 -9999.0 -9999.0 -9999.0 -9999.0 -9999.0 -9999.0
-9999.0 -9999.0 -9999.0 -9999.0 -9999.0 -9999.0 -9999.0 -9999.0 -9999.0 -9999.0 187.937000 185.280100 180.021100 177.226700 173.278400 170.966900 167.769900 165.469300 162.340400 160.611800 157.718000 155.009900 151.351100 149.194900 144.945700 141.763800 135.667900 131.974000 131.272700 133.662700 138.167800 140.085500 142.378500 143.751900 145.602100 146.645100 148.201000 149.370300 151.189800 152.844000 155.232000 156.323300 157.758200 158.628900 158.956300 159.149500 160.056300 160.974700 161.775400 162.407800 -9999.0 -9999.0 -9999.0 -9999.0 -9999.0 -9999.0 -9999.0 -9999.0 -9999.0 -9999.0 -9999.0 -9999.0 -9999.0 -9999.0 -9999.0 -9999.0 -9999.0 -9999.0 -9999.0
-9999.0 -9999.0 -9999.0 -9999.0 -9999.0 -9999.0 -9999.0 -9999.0 -9999.0 -9999.0 -9999.0 184.166500 180.088100 177.890800 174.031000 171.284100 167.850300 165.845200 162.944300 161.229100 158.833100 156.220300 152.507600 150.013900 145.342300 141.864900 136.709500 132.842900 130.427700 132.156200 136.408900 138.951000 140.671200 141.947900 143.795400 144.934200 146.496400 147.497100 148.835000 150.008000 151.611800 152.583600 153.756100 154.578600 155.687400 156.382200 157.738000 158.689900 160.407900 160.978400 -9999.0 -9999.0 -9999.0 -9999.0 -9999.0 -9999.0 -9999.0 -9999.0 -9999.0 -9999.0 -9999.0 -9999.0 -9999.0 -9999.0 -9999.0 -9999.0 -9999.0 -9999.0 -9999.0
-9999.0 -9999.0 -9999.0 -9999.0 -9999.0 -9999.0 -9999.0 -9999.0 -9999.0 -9999.0 -9999.0 181.820400 180.764900 178.709200 174.375700 171.395900 167.715800 165.666900 162.707200 160.853300 158.306900 156.023900 152.524000 150.007700 145.433500 142.293400 137.842700 133.847900 130.154500 131.029800 134.822300 137.249400 139.362300 140.650000 142.467400 143.508500 145.221000 146.258200 147.718500 148.768000 149.954100 150.531300 151.368000 152.198600 153.536500 154.339400 155.697700 156.756300 159.362500 160.022000 -9999.0 -9999.0 -9999.0 -9999.0 -9999.0 -9999.0 -9999.0 -9999.0 -9999.0 -9999.0 -9999.0 -9999.0 -9999.0 -9999.0 -9999.0 -9999.0 -9999.0 -9999.0 -9999.0
-9999.0 -9999.0 -9999.0 -9999.0 -9999.0 -9999.0 -9999.0 -9999.0 -9999.0 -9999.0 -9999.0 -9999.0 178.734800 177.407400 173.927100 171.339900 167.483800 165.111500 162.017400 160.072100 157.442800 155.177000 152.143600 150.015500 145.356600 141.719000 138.444700 135.546600 130.793900 129.732000 132.156000 134.399700 137.024900 138.530900 140.579300 141.444900 143.231800 144.446900 146.009100 146.863400 147.879400 148.497400 149.319600 149.959500 150.814500 151.456400 152.894000 154.359800 156.573900 157.544200 -9999.0 -9999.0 -9999.0 -9999.0 -9999.0 -9999.0 -9999.0 -9999.0 -9999.0 -9999.0 -9999.0 -9999.0 -9999.0 -9999.0 -9999.0 -9999.0 -9999.0 -9999.0 -9999.0
-9999.0 -9999.0 -9999.0 -9999.0 -9999.0 -9999.0 -9999.0 -9999.0 -9999.0 -9999.0 -9999.0 -9999.0 -9999.0 175.049400 172.702700 170.804000 167.071000 164.500700 161.610000 160.002300 156.633400 154.262800 151.441600 149.863500 145.439900 142.326900 139.011000 136.607200 131.907600 129.746200 130.475800 132.377100 134.961500 136.541300 138.836200 139.993000 141.763200 143.220700 144.844300 145.566100 146.312100 146.893600 147.808600 148.491300 149.508100 149.979500 151.458000 152.841100 154.536300 155.159700 -9999.0 -9999.0 -9999.0 -9999.0 -9999.0 -9999.0 -9999.0 -9999.0 -9999.0 -9999.0 -9999.0 -9999.0 -9999.0 -9999.0 -9999.0 -9999.0 -9999.0 -9999.0 -9999.0
-9999.0 -9999.0 -9999.0 -9999.0 -9999.0 -9999.0 -9999.0 -9999.0 -9999.0 -9999.0 -9999.0 -9999.0 -9999.0 171.208100 170.029100 168.289200 165.065700 162.733700 160.004100 158.444700 154.982600 152.481800 149.228400 147.426100 144.265900 142.008900 139.006700 137.161300 133.736900 131.024600 129.046400 129.522100 131.113700 132.699900 134.789200 136.263700 138.812300 140.873600 142.628300 143.272300 143.456800 143.875900 144.958100 145.801700 147.125000 148.073500 150.003700 150.733000 151.543900 151.731000 -9999.0 -9999.0 -9999.0 -9999.0 -9999.0 -9999.0 -9999.0 -9999.0 -9999.0 -9999.0 -9999.0 -9999.0 -9999.0 -9999.0 -9999.0 -9999.0 -9999.0 -9999.0 -9999.0
-9999.0 -9999.0 -9999.0 -9999.0 -9999.0 -9999.0 -9999.0 -9999.0 -9999.0 -9999.0 -9999.0 -9999.0 -9999.0 -9999.0 168.014600 166.376100 163.411900 161.428800 159.038300 157.154600 153.832500 151.580700 148.760100 146.426800 142.950500 140.749100 138.471200 136.815100 134.288800 132.007100 129.331400 128.736100 128.829100 130.446300 131.691900 132.906900 135.188700 137.456500 140.200400 141.243100 141.158300 141.589300 142.967600 144.114500 145.854200 147.057300 148.944500 149.636300 150.003100 150.001600 -9999.0 -9999.0 -9999.0 -9999.0 -9999.0 -9999.0 -9999.0 -9999.0 -9999.0 -9999.0 -9999.0 -9999.0 -9999.0 -9999.0 -9999.0 -9999.0 -9999.0 -9999.0 -9999.0
-9999.0 -9999.0 -9999.0 -9999.0 -9999.0 -9999.0 -9999.0 -9999.0 -9999.0 -9999.0 -9999.0 -9999.0 -9999.0 -9999.0 -9999.0 162.995000 161.029100 159.904500 157.098700 155.210700 152.272500 150.594900 148.057800 145.763800 142.064600 139.993500 137.823000 136.417000 134.119400 132.429300 130.236100 130.050700 129.483500 128.031300 127.703100 128.802700 129.842900 130.455100 134.328900 136.397700 137.944600 139.015700 140.624700 142.268300 144.376600 145.640400 147.216300 147.866800 148.310900 148.485400 -9999.0 -9999.0 -9999.0 -9999.0 -9999.0 -9999.0 -9999.0 -9999.0 -9999.0 -9999.0 -9999.0 -9999.0 -9999.0 -9999.0 -9999.0 -9999.0 -9999.0 -9999.0 -9999.0
-9999.0 -9999.0 -9999.0 -9999.0 -9999.0 -9999.0 -9999.0 -9999.0 -9999.0 -9999.0 -9999.0 -9999.0 -9999.0 -9999.0 -9999.0 -9999.0 159.267500 158.036400 155.263300 153.414700 150.805600 149.397800 147.434800 145.460700 141.990800 139.999500 137.981000 136.470000 134.065600 132.368700 130.012500 129.538000 128.993300 128.231500 127.667300 127.400100 128.219400 129.117300 131.078300 133.189800 135.792400 137.436700 139.997800 141.580700 143.546400 144.734400 146.128900 146.709600 147.308900 147.639000 -9999.0 -9999.0 -9999.0 -9999.0 -9999.0 -9999.0 -9999.0 -9999.0 -9999.0 -9999.0 -9999.0 -9999.0 -9999.0 -9999.0 -9999.0 -9999.0 -9999.0 -9999.0 -9999.0
-9999.0 -9999.0 -9999.0 -9999.0 -9999.0 -9999.0 -9999.0 -9999.0 -9999.0 -9999.0 -9999.0 -9999.0 -9999.0 -9999.0 -9999.0 -9999.0 -9999.0 153.917300 151.943000 150.175300 148.375100 147.116400 145.627600 144.352000 141.911300 140.386800 138.427500 136.795200 134.341700 132.700500 130.550900 129.695500 128.565700 127.943200 127.577400 127.289800 126.922500 127.277500 128.488100 129.994100 133.000400 135.241700 138.436200 139.997300 142.092200 143.327600 144.656100 145.285000 146.174600 146.840300 -9999.0 -9999.0 -9999.0 -9999.0 -9999.0 -9999.0 -9999.0 -9999.0 -9999.0 -9999.0 -9999.0 -9999.0 -9999.0 -9999.0 -9999.0 -9999.0 -9999.0 -9999.0 -9999.0
-9999.0 -9999.0 -9999.0 -9999.0 -9999.0 -9999.0 -9999.0 -9999.0 -9999.0 -9999.0 -9999.0 -9999.0 -9999.0 -9999.0 -9999.0 -9999.0 -9999.0 150.934700 149.776600 148.145200 146.179900 145.124400 143.833800 142.871000 141.134100 139.977500 138.122800 136.683400 134.459800 132.961200 131.023500 130.263900 128.851000 127.623000 127.081000 127.060000 126.808200 126.598900 127.496600 128.992200 131.669400 133.819400 137.227100 139.182200 141.477200 142.613100 143.913500 144.675000 145.837500 146.671700 -9999.0 -9999.0 -9999.0 -9999.0 -9999.0 -9999.0 -9999.0 -9999.0 -9999.0 -9999.0 -9999.0 -9999.0 -9999.0 -9999.0 -9999.0 -9999.0 -9999.0 -9999.0 -9999.0
-9999.0 -9999.0 -9999.0 -9999.0 -9999.0 -9999.0 -9999.0 -9999.0 -9999.0 -9999.0 -9999.0 -9999.0 -9999.0 -9999.0 -9999.0 -9999.0 -9999.0 -9999.0 145.064000 143.787500 142.252700 141.864600 141.151400 140.571700 139.989100 139.262500 137.486100 136.079800 134.040000 132.786000 131.119900 130.252700 129.017700 127.267700 125.693300 125.907400 126.306000 126.201100 126.493300 127.798400 129.998900 131.676300 135.816600 138.849500 141.111600 141.943400 143.319500 144.392900 145.979400 146.974900 148.293400 -9999.0 -9999.0 -9999.0 -9999.0 -9999.0 -9999.0 -9999.0 -9999.0 -9999.0 -9999.0 -9999.0 -9999.0 -9999.0 -9999.0 -9999.0 -9999.0 -9999.0 -9999.0
-9999.0 -9999.0 -9999.0 -9999.0 -9999.0 -9999.0 -9999.0 -9999.0 -9999.0 -9999.0 -9999.0 -9999.0 -9999.0 -9999.0 -9999.0 -9999.0 -9999.0 -9999.0 -9999.0 141.064200 139.993900 139.998500 139.958500 139.471300 139.056900 138.461400 136.876500 135.436000 133.330000 132.181300 130.768000 129.982000 128.329000 126.732200 124.830800 124.783500 125.751100 125.933700 126.013400 127.003500 129.128200 130.598500 134.574300 138.213200 140.810900 141.466600 143.196100 144.521700 146.358400 147.440000 148.792800 149.492800 -9999.0 -9999.0 -9999.0 -9999.0 -9999.0 -9999.0 -9999.0 -9999.0 -9999.0 -9999.0 -9999.0 -9999.0 -9999.0 -9999.0 -9999.0 -9999.0 -9999.0
-9999.0 -9999.0 -9999.0 -9999.0 -9999.0 -9999.0 -9999.0 -9999.0 -9999.0 -9999.0 -9999.0 -9999.0 -9999.0 -9999.0 -9999.0 -9999.0 -9999.0 -9999.0 -9999.0 -9999.0 138.039400 137.668800 137.275300 137.181200 137.295200 137.011700 135.511600 133.939900 131.665300 130.644900 129.528500 128.371300 126.585900 125.387000 123.551600 123.351400 124.755200 125.386200 125.477900 126.130700 128.000900 129.270900 132.788300 135.576200 138.847300 140.851500 143.601700 145.167700 147.059400 148.181200 149.599000 150.234200 151.061000 -9999.0 -9999.0 -9999.0 -9999.0 -9999.0 -9999.0 -9999.0 -9999.0 -9999.0 -9999.0 -9999.0 -9999.0 -9999.0 -9999.0 -9999.0 -9999.0
-9999.0 -9999.0 -9999.0 -9999.0 -9999.0 -9999.0 -9999.0 -9999.0 -9999.0 -9999.0 -9999.0 -9999.0 -9999.0 -9999.0 -9999.0 -9999.0 -9999.0 -9999.0 -9999.0 -9999.0 -9999.0 -9999.0 135.464600 135.350500 135.951200 135.962700 134.453800 132.731600 130.494000 129.592200 128.538600 127.347500 125.478200 124.464600 122.811400 122.609000 124.092800 124.982200 125.220000 125.570400 127.869200 129.887600 133.471600 136.438600 139.931300 141.791100 144.546100 146.079500 147.823000 148.809800 149.998800 150.558400 151.508700 -9999.0 -9999.0 -9999.0 -9999.0 -9999.0 -9999.0 -9999.0 -9999.0 -9999.0 -9999.0 -9999.0 -9999.0 -9999.0 -9999.0 -9999.0 -9999.0
-9999.0 -9999.0 -9999.0 -9999.0 -9999.0 -9999.0 -9999.0 -9999.0 -9999.0 -9999.0 -9999.0 -9999.0 -9999.0 -9999.0 -9999.0 -9999.0 -9999.0 -9999.0 -9999.0 -9999.0 -9999.0 -9999.0 -9999.0 132.727300 134.009600 134.394200 132.980600 131.191500 129.460300 128.639100 127.442500 126.583700 125.263700 124.472800 122.861600 122.085600 123.112200 124.277600 124.810700 124.732000 128.356900 130.390500 136.154700 139.696100 142.674200 144.299700 146.641000 147.985400 149.298200 149.998900 150.863700 151.295600 151.962000 152.521700 153.598500 -9999.0 -9999.0 156.996600 158.408100 158.912100 158.425400 157.601300 -9999.0 -9999.0 -9999.0 -9999.0 -9999.0 -9999.0 -9999.0
-9999.0 -9999.0 -9999.0 -9999.0 -9999.0 -9999.0 -9999.0 -9999.0 -9999.0 -9999.0 -9999.0 -9999.0 -9999.0 -9999.0 -9999.0 -9999.0 -9999.0 -9999.0 -9999.0 -9999.0 -9999.0 -9999.0 -9999.0 -9999.0 -9999.0 133.368100 132.387600 130.731800 129.279800 128.608500 127.563600 126.904100 126.217300 125.674300 123.727400 122.344700 122.495700 123.721700 124.281000 125.048700 129.971400 132.880600 138.081200 140.868200 143.981500 145.678200 147.899700 149.146300 150.008500 150.576000 151.336200 151.691800 152.129100 152.509900 153.324400 154.051800 155.369000 156.251700 157.302300 157.557300 157.105900 156.506700 155.601200 154.831600 -9999.0 -9999.0 -9999.0 -9999.0 -9999.0
-9999.0 -9999.0 -9999.0 -9999.0 -9999.0 -9999.0 -9999.0 -9999.0 -9999.0 -9999.0 -9999.0 -9999.0 -9999.0 -9999.0 -9999.0 -9999.0 -9999.0 -9999.0 -9999.0 -9999.0 -9999.0 -9999.0 -9999.0 -9999.0 -9999.0 -9999.0 -9999.0 131.136500 129.999900 129.379400 128.689700 128.283600 127.833500 127.476500 125.375100 123.253600 121.951500 122.967300 123.539700 127.058000 133.376100 137.111500 140.972800 142.857400 145.674100 147.342000 149.210000 150.000000 150.930500 151.420000 151.919500 152.067300 152.149800 152.244500 152.626400 153.069100 153.954800 154.565600 155.219000 155.322900 154.907500 154.407200 153.527500 152.834500 151.695100 -9999.0 -9999.0 -9999.0 -9999.0
-9999.0 -9999.0 -9999.0 -9999.0 -9999.0 -9999.0 -9999.0 -9999.0 -9999.0 -9999.0 -9999.0 -9999.0 -9999.0 -9999.0 -9999.0 -9999.0 -9999.0 -9999.0 -9999.0 -9999.0 -9999.0 -9999.0 -9999.0 -9999.0 -9999.0 -9999.0 -9999.0 -9999.0 -9999.0 130.002700 129.554200 129.158300 128.462300 127.966000 126.428600 124.355900 121.812900 122.376200 123.799100 128.437400 135.373500 139.018700 142.266000 143.989500 146.606500 148.259200 150.005600 150.722300 151.557800 151.952500 152.214000 152.177200 151.987200 151.889500 151.956400 152.208700 152.807600 153.229500 153.671700 153.734000 153.357300 152.879200 152.049600 151.388500 150.044000 149.996300 -9999.0 -9999.0 -9999.0
-9999.0 -9999.0 -9999.0 -9999.0 -9999.0 -9999.0 -9999.0 -9999.0 -9999.0 -9999.0 -9999.0 -9999.0 -9999.0 -9999.0 -9999.0 -9999.0 -9999.0 -9999.0 -9999.0 -9999.0 -9999.0 -9999.0 -9999.0 -9999.0 -9999.0 -9999.0 -9999.0 -9999.0 -9999.0 -9999.0 129.840800 129.496000 128.719900 128.114700 128.146000 127.388600 124.009300 122.023300 126.496900 132.077600 137.964000 140.093200 142.891000 144.558700 147.091400 148.663700 150.528000 151.305200 152.096400 152.362300 152.290500 151.994300 151.478200 151.140900 150.681500 150.594200 150.792400 150.914900 151.040800 151.064800 150.932600 150.575200 149.991200 149.402300 148.073000 147.667800 147.712400 -9999.0 -9999.0
-9999.0 -9999.0 -9999.0 -9999.0 -9999.0 -9999.0 -9999.0 -9999.0 -9999.0 -9999.0 -9999.0 -9999.0 -9999.0 -9999.0 -9999.0 -9999.0 -9999.0 -9999.0 -9999.0 -9999.0 -9999.0 -9999.0 -9999.0 -9999.0 -9999.0 -9999.0 -9999.0 -9999.0 -9999.0 -9999.0 -9999.0 129.055200 128.715500 128.218100 129.193200 129.633200 126.577700 121.559000 128.603600 133.320100 138.162500 140.076800 142.574700 144.125900 146.587100 148.138000 150.005500 150.955700 151.924900 152.190500 151.981400 151.538100 150.950900 150.576800 149.962300 149.386500 149.108600 148.976100 148.806800 148.764100 148.772900 148.606800 147.523000 146.900600 146.037000 145.858700 146.032700 145.922100 -9999.0
-9999.0 -9999.0 -9999.0 -9999.0 -9999.0 -9999.0 -9999.0 -9999.0 -9999.0 -9999.0 -9999.0 -9999.0 -9999.0 -9999.0 -9999.0 -9999.0 -9999.0 -9999.0 -9999.0 -9999.0 -9999.0 -9999.0 -9999.0 -9999.0 -9999.0 -9999.0 -9999.0 -9999.0 -9999.0 -9999.0 -9999.0 -9999.0 128.541000 128.567700 129.830800 130.595900 125.949600 121.430700 129.342300 132.619500 135.942100 137.967600 140.762500 142.137000 144.788500 146.154900 147.864900 149.327800 150.756000 151.194600 151.017800 150.373400 149.970000 149.370100 147.854900 146.936600 146.015500 145.445800 144.671700 144.395000 144.565000 144.090300 142.797300 142.432700 142.828300 143.134400 143.532200 143.605800 -9999.0
-9999.0 -9999.0 -9999.0 -9999.0 -9999.0 -9999.0 -9999.0 -9999.0 -9999.0 -9999.0 -9999.0 -9999.0 -9999.0 -9999.0 -9999.0 -9999.0 -9999.0 -9999.0 -9999.0 -9999.0 -9999.0 -9999.0 -9999.0 -9999.0 -9999.0 -9999.0 -9999.0 -9999.0 -9999.0 -9999.0 -9999.0 -9999.0 128.361900 128.743200 129.795700 129.549000 121.310100 121.756400 126.872500 130.410600 133.186000 134.963100 138.186600 140.017700 143.174000 144.512800 145.957700 147.411900 149.392600 150.004800 150.006000 149.557100 148.524400 147.780700 146.164000 145.102400 143.842600 142.993900 141.932200 141.350100 141.991500 141.280100 140.105200 140.058900 141.171000 141.571800 142.032200 142.138600 -9999.0
-9999.0 -9999.0 -9999.0 -9999.0 -9999.0 -9999.0 -9999.0 -9999.0 -9999.0 -9999.0 -9999.0 -9999.0 -9999.0 -9999.0 -9999.0 -9999.0 -9999.0 -9999.0 -9999.0 -9999.0 -9999.0 -9999.0 -9999.0 -9999.0 -9999.0 -9999.0 -9999.0 -9999.0 -9999.0 -9999.0 -9999.0 -9999.0 129.123800 129.934500 131.613000 131.814500 127.521700 123.207000 121.008500 120.918100 127.141500 129.469200 132.729200 135.370500 139.815300 141.347800 141.753300 143.072100 145.591800 146.708000 147.251800 147.003100 146.064500 145.255900 143.520900 142.317400 141.109900 140.056900 139.268300 138.793400 138.700000 138.087200 137.568500 137.725800 138.708200 138.829400 140.005000 140.002600 140.004700
-9999.0 -9999.0 -9999.0 -9999.0 -9999.0 -9999.0 -9999.0 -9999.0 -9999.0 -9999.0 -9999.0 -9999.0 -9999.0 -9999.0 -9999.0 -9999.0 -9999.0 -9999.0 -9999.0 -9999.0 -9999.0 -9999.0 -9999.0 -9999.0 -9999.0 -9999.0 -9999.0 -9999.0 -9999.0 -9999.0 -9999.0 -9999.0 -9999.0 132.845300 134.912400 135.072800 132.986300 130.670600 128.190700 124.504800 121.288600 123.314500 126.591100 130.592200 136.093800 138.314100 139.131000 140.177500 143.010400 144.354300 145.146100 145.045700 144.332600 143.632100 141.933700 140.600800 139.943600 138.899500 137.681000 137.105800 136.410200 135.797900 135.216000 135.325800 136.096700 136.771900 138.075000 138.366000 138.525900
-9999.0 -9999.0 -9999.0 -9999.0 -9999.0 -9999.0 -9999.0 -9999.0 -9999.0 -9999.0 -9999.0 -9999.0 -9999.0 -9999.0 -9999.0 -9999.0 -9999.0 -9999.0 -9999.0 -9999.0 -9999.0 -9999.0 -9999.0 -9999.0 -9999.0 -9999.0 -9999.0 -9999.0 -9999.0 -9999.0 -9999.0 -9999.0 -9999.0 138.403200 139.927300 139.207700 137.725200 135.858300 132.208800 130.517100 124.000000 121.156600 119.977800 121.715000 128.997600 132.871300 135.409900 137.174200 140.026700 141.094800 141.982200 142.111300 141.772300 141.228900 140.006300 138.822900 137.384400 136.492100 135.115700 134.259000 132.956500 132.255800 131.725500 131.746200 132.250100 133.191300 134.707200 135.309100 135.834300
-9999.0 -9999.0 -9999.0 -9999.0 -9999.0 -9999.0 -9999.0 -9999.0 -9999.0 -9999.0 -9999.0 -9999.0 -9999.0 -9999.0 -9999.0 -9999.0 -9999.0 -9999.0 -9999.0 -9999.0 -9999.0 -9999.0 -9999.0 -9999.0 -9999.0 -9999.0 -9999.0 -9999.0 -9999.0 -9999.0 -9999.0 -9999.0 -9999.0 -9999.0 141.033900 140.381800 139.175700 137.554800 133.774400 131.440300 125.956900 122.397600 119.599000 118.956000 123.132500 128.699300 132.967700 134.979800 137.928600 138.997700 140.003800 140.006900 140.003600 139.924700 138.730000 137.503400 135.832600 134.884600 133.434500 132.498400 130.838200 130.424500 129.997000 129.997800 130.063900 131.128300 132.480800 133.095300 133.886600
-9999.0 -9999.0 -9999.0 -9999.0 -9999.0 -9999.0 -9999.0 -9999.0 -9999.0 -9999.0 -9999.0 -9999.0 -9999.0 -9999.0 -9999.0 -9999.0 -9999.0 -9999.0 -9999.0 -9999.0 -9999.0 -9999.0 -9999.0 -9999.0 -9999.0 -9999.0 -9999.0 -9999.0 -9999.0 -9999.0 -9999.0 -9999.0 -9999.0 -9999.0 140.053200 140.432000 140.001100 139.317500 134.301800 130.323200 126.527800 124.006600 121.254200 119.853800 118.219300 120.504200 126.184600 129.733000 133.265800 134.705000 135.892400 136.180300 136.442200 136.542400 135.934600 134.923300 133.379900 132.563900 131.109000 130.412600 129.413200 128.770800 128.296800 128.247100 128.743200 129.421000 129.998300 130.371000 131.170200
-9999.0 -9999.0 -9999.0 -9999.0 -9999.0 -9999.0 -9999.0 -9999.0 -9999.0 -9999.0 -9999.0 -9999.0 -9999.0 -9999.0 -9999.0 -9999.0 -9999.0 -9999.0 -9999.0 -9999.0 -9999.0 -9999.0 -9999.0 -9999.0 -9999.0 -9999.0 -9999.0 -9999.0 -9999.0 -9999.0 -9999.0 -9999.0 -9999.0 -9999.0 138.281600 138.603200 140.309700 140.006100 134.288800 130.051700 126.525200 124.568100 121.887100 120.069000 117.756100 117.816800 120.960500 125.075600 129.488700 131.230900 132.665900 133.167400 133.631300 133.930200 133.664100 132.894500 131.615800 131.039400 129.952900 129.365600 128.360700 127.798500 127.307100 127.260700 127.766400 128.343700 129.023600 129.537800 130.000200
-9999.0 -9999.0 -9999.0 -9999.0 -9999.0 -9999.0 -9999.0 -9999.0 -9999.0 -9999.0 -9999.0 -9999.0 -9999.0 -9999.0 -9999.0 -9999.0 -9999.0 -9999.0 -9999.0 -9999.0 -9999.0 -9999.0 -9999.0 -9999.0 -9999.0 -9999.0 -9999.0 -9999.0 -9999.0 -9999.0 -9999.0 -9999.0 -9999.0 134.469900 134.359000 134.884000 137.727800 137.840900 133.152800 130.031600 127.027800 125.309500 122.722900 120.957800 118.638600 116.460000 117.353100 119.601600 123.193700 125.488900 127.626900 128.172800 129.713700 130.010300 130.009600 130.004400 129.406700 129.276600 128.134400 127.453000 126.620400 126.217400 125.818000 125.799900 126.333900 126.921400 127.726400 128.251800 128.913000
-9999.0 -9999.0 -9999.0 -9999.0 -9999.0 -9999.0 -9999.0 -9999.0 -9999.0 -9999.0 -9999.0 -9999.0 -9999.0 -9999.0 -9999.0 -9999.0 -9999.0 -9999.0 -9999.0 -9999.0 -9999.0 -9999.0 -9999.0 -9999.0 -9999.0 -9999.0 -9999.0 -9999.0 -9999.0 -9999.0 -9999.0 -9999.0 -9999.0 132.474500 131.487000 131.626600 134.136600 134.796100 131.484600 129.443700 127.244900 125.715200 123.337500 121.805600 119.930300 117.516900 115.387400 116.539300 119.961200 121.721700 123.411700 124.166900 126.158100 127.015800 127.552800 127.860200 127.952000 127.813600 126.947000 126.231000 125.386200 125.035400 124.767900 124.852500 125.448900 126.044400 126.929600 127.464700 128.165800
-9999.0 -9999.0 -9999.0 -9999.0 -9999.0 -9999.0 -9999.0 -9999.0 -9999.0 -9999.0 -9999.0 -9999.0 -9999.0 -9999.0 -9999.0 -9999.0 -9999.0 -9999.0 -9999.0 -9999.0 -9999.0 -9999.0 -9999.0 -9999.0 -9999.0 -9999.0 -9999.0 -9999.0 -9999.0 -9999.0 -9999.0 -9999.0 -9999.0 126.813700 126.681200 127.245200 130.013900 131.088800 129.300700 127.957100 126.402200 125.393600 123.773800 122.662000 120.872800 119.225900 115.170400 113.939300 115.529100 116.974800 118.486100 119.170900 121.430000 122.737900 123.749200 124.443000 125.348000 125.487800 124.945100 124.311900 123.507600 123.224800 123.214900 123.506200 124.417300 125.106400 126.098200 126.638200 127.253000
-9999.0 -9999.0 -9999.0 -9999.0 -9999.0 -9999.0 -9999.0 -9999.0 -9999.0 -9999.0 -9999.0 -9999.0 -9999.0 -9999.0 -9999.0 -9999.0 -9999.0 -9999.0 -9999.0 -9999.0 -9999.0 -9999.0 -9999.0 -9999.0 -9999.0 -9999.0 -9999.0 -9999.0 -9999.0 -9999.0 -9999.0 -9999.0 -9999.0 120.678700 123.285700 125.047500 128.001800 128.891800 127.617000 126.275800 124.885400 124.177500 123.160000 122.392400 121.022300 119.996100 115.693800 113.436900 113.206500 114.257900 115.880000 117.046300 119.211400 120.713900 121.285900 122.334100 123.744300 124.048100 123.600600 123.014000 122.281100 122.041300 122.252800 122.837200 124.156600 124.953000 125.984800 126.515800 126.981200
-9999.0 -9999.0 -9999.0 -9999.0 -9999.0 -9999.0 -9999.0 -9999.0 -9999.0 -9999.0 -9999.0 -9999.0 -9999.0 -9999.0 -9999.0 -9999.0 -9999.0 -9999.0 -9999.0 -9999.0 -9999.0 -9999.0 -9999.0 -9999.0 -9999.0 -9999.0 -9999.0 -9999.0 -9999.0 -9999.0 -9999.0 -9999.0 119.924600 117.584900 120.107400 122.473800 124.573600 124.889700 123.944600 122.890800 122.023700 121.222200 120.918500 120.708700 119.978900 119.138800 115.896800 113.209700 111.134400 111.486000 112.615400 113.397800 115.300000 116.667200 118.518600 119.991200 121.750700 122.132100 121.681200 121.108500 120.578000 120.488100 121.522100 122.939800 124.961400 125.826200 126.726400 127.181100 -9999.0
-9999.0 -9999.0 -9999.0 -9999.0 -9999.0 -9999.0 -9999.0 -9999.0 -9999.0 -9999.0 -9999.0 -9999.0 -9999.0 -9999.0 -9999.0 -9999.0 -9999.0 -9999.0 -9999.0 -9999.0 -9999.0 -9999.0 -9999.0 -9999.0 -9999.0 -9999.0 -9999.0 -9999.0 -9999.0 -9999.0 -9999.0 -9999.0 120.685600 117.307900 118.315000 120.800100 122.311800 122.131700 121.232700 120.178700 120.003700 119.329300 119.024900 119.118000 118.627700 118.004800 115.689500 113.357200 110.757100 110.431700 110.781700 110.988300 112.531500 113.946500 116.101300 118.026000 120.496000 120.837100 120.485100 119.809500 119.203300 119.556800 121.989700 124.188000 126.525400 127.243000 127.746900 128.030100 -9999.0
-9999.0 -9999.0 -9999.0 -9999.0 -9999.0 -9999.0 -9999.0 -9999.0 -9999.0 -9999.0 -9999.0 -9999.0 -9999.0 -9999.0 -9999.0 -9999.0 -9999.0 -9999.0 -9999.0 -9999.0 -9999.0 -9999.0 -9999.0 -9999.0 -9999.0 -9999.0 -9999.0 -9999.0 -9999.0 -9999.0 -9999.0 -9999.0 116.361500 114.050300 114.019600 116.194000 118.370800 118.179200 116.944800 116.456300 115.931500 115.677700 115.722900 116.053800 116.234300 116.162600 115.332500 113.954300 111.289500 109.805800 108.632900 108.728900 109.941700 110.603000 111.955900 113.516400 115.306500 115.359000 115.992600 117.558500 119.768000 121.183800 125.490100 128.139500 129.891800 130.017200 129.414600 129.448500 -9999.0
-9999.0 -9999.0 -9999.0 -9999.0 -9999.0 -9999.0 -9999.0 -9999.0 -9999.0 -9999.0 -9999.0 -9999.0 -9999.0 -9999.0 -9999.0 -9999.0 -9999.0 -9999.0 -9999.0 -9999.0 -9999.0 -9999.0 -9999.0 -9999.0 -9999.0 -9999.0 -9999.0 -9999.0 -9999.0 -9999.0 -9999.0 110.124000 111.976500 111.190300 111.114500 112.489500 114.709200 114.800100 113.843800 113.305800 113.019600 113.014200 113.449100 114.003000 114.938400 115.473300 115.652400 114.983300 112.632000 110.124700 107.771100 107.696700 108.463500 109.080100 109.994300 111.111800 112.491900 114.150400 119.163200 120.940800 122.784100 124.645500 128.666100 130.820900 131.648700 131.835200 131.037300 130.567000 -9999.0
-9999.0 -9999.0 -9999.0 -9999.0 -9999.0 -9999.0 -9999.0 -9999.0 -9999.0 -9999.0 -9999.0 -9999.0 -9999.0 -9999.0 -9999.0 -9999.0 -9999.0 -9999.0 -9999.0 -9999.0 -9999.0 -9999.0 -9999.0 -9999.0 -9999.0 -9999.0 -9999.0 -9999.0 -9999.0 -9999.0 -9999.0 112.415600 112.387000 110.795200 109.936200 109.115000 109.878900 109.770300 109.265500 108.037000 107.632500 108.370700 110.114400 111.083600 113.244300 115.085600 117.132800 117.700600 116.694300 114.233800 108.683800 106.278000 106.443500 106.984700 108.376800 109.495400 112.244700 115.726900 120.989800 123.660800 127.267300 129.137500 131.703800 133.099100 134.398300 135.021400 135.206900 134.157500 -9999.0
-9999.0 -9999.0 -9999.0 -9999.0 -9999.0 -9999.0 -9999.0 -9999.0 -9999.0 -9999.0 -9999.0 -9999.0 -9999.0 -9999.0 -9999.0 -9999.0 -9999.0 -9999.0 -9999.0 -9999.0 -9999.0 -9999.0 -9999.0 -9999.0 -9999.0 -9999.0 -9999.0 -9999.0 -9999.0 -9999.0 -9999.0 118.334200 119.293400 116.677100 112.495400 109.978900 109.007800 108.604300 108.262800 108.063100 107.291000 105.787400 107.399200 109.119800 112.172600 115.007300 118.318100 119.504300 119.838800 117.985700 111.850800 106.927400 105.345800 105.827800 107.494100 109.064100 112.423700 115.486000 120.110300 123.441100 128.412100 130.589200 132.294200 133.529800 135.268800 136.482500 137.205300 -9999.0 -9999.0
-9999.0 -9999.0 -9999.0 -9999.0 -9999.0 -9999.0 -9999.0 -9999.0 -9999.0 -9999.0 -9999.0 -9999.0 -9999.0 -9999.0 -9999.0 -9999.0 -9999.0 -9999.0 -9999.0 -9999.0 -9999.0 -9999.0 -9999.0 -9999.0 -9999.0 -9999.0 -9999.0 -9999.0 -9999.0 -9999.0 -9999.0 121.804400 122.029000 120.051900 115.316700 112.595300 111.132600 111.114500 111.027100 110.935600 111.452900 109.283400 104.783500 106.623100 111.077700 114.602200 119.922800 120.895500 121.264300 121.337600 116.865700 110.381000 106.465100 104.408400 105.139900 107.723800 111.471400 114.043800 118.448000 121.202700 126.641900 129.278300 131.559500 132.711100 134.346000 -9999.0 -9999.0 -9999.0 -9999.0
-9999.0 -9999.0 -9999.0 -9999.0 -9999.0 -9999.0 -9999.0 -9999.0 -9999.0 -9999.0 -9999.0 -9999.0 -9999.0 -9999.0 -9999.0 -9999.0 -9999.0 -9999.0 -9999.0 -9999.0 -9999.0 -9999.0 -9999.0 -9999.0 -9999.0 -9999.0 -9999.0 -9999.0 -9999.0 -9999.0 -9999.0 122.074700 121.395800 119.909200 115.886700 113.450800 111.606000 111.309500 111.128500 111.463700 111.938400 109.920900 104.291000 105.138200 109.722900 112.976100 118.775000 120.014600 120.066700 120.821500 118.120700 112.268000 107.769100 105.447400 103.378600 104.327300 109.182300 112.363100 117.270900 120.023600 124.760300 127.646900 130.638400 131.484400 132.795100 -9999.0 -9999.0 -9999.0 -9999.0
-9999.0 -9999.0 -9999.0 -9999.0 -9999.0 -9999.0 -9999.0 -9999.0 -9999.0 -9999.0 -9999.0 -9999.0 -9999.0 -9999.0 -9999.0 -9999.0 -9999.0 -9999.0 -9999.0 -9999.0 -9999.0 -9999.0 -9999.0 -9999.0 -9999.0 -9999.0 -9999.0 -9999.0 -9999.0 -9999.0 -9999.0 -9999.0 -9999.0 117.469500 114.761400 113.112400 111.520900 111.053000 110.599200 110.817600 111.329500 109.945900 104.362900 103.644100 107.221700 109.819000 114.050500 115.917500 117.490400 118.517400 119.726400 114.365000 108.320800 107.541800 105.341800 102.882500 101.214700 107.330500 115.519000 118.810000 122.523800 124.554700 127.225100 128.666000 130.003200 -9999.0 -9999.0 -9999.0 -9999.0
-9999.0 -9999.0 -9999.0 -9999.0 -9999.0 -9999.0 -9999.0 -9999.0 -9999.0 -9999.0 -9999.0 -9999.0 -9999.0 -9999.0 -9999.0 -9999.0 -9999.0 -9999.0 -9999.0 -9999.0 -9999.0 -9999.0 -9999.0 -9999.0 -9999.0 -9999.0 -9999.0 -9999.0 -9999.0 -9999.0 -9999.0 -9999.0 -9999.0 -9999.0 -9999.0 112.071200 110.990300 110.628000 109.995800 110.290100 110.442400 109.278200 104.158700 102.862000 105.978100 108.623400 111.805800 113.686200 115.711500 116.783800 116.598200 112.513300 109.363300 109.604400 107.487700 103.501300 100.285200 104.308900 114.516300 117.979500 120.934900 122.272900 123.992900 125.657700 -9999.0 -9999.0 -9999.0 -9999.0 -9999.0
-9999.0 -9999.0 -9999.0 -9999.0 -9999.0 -9999.0 -9999.0 -9999.0 -9999.0 -9999.0 -9999.0 -9999.0 -9999.0 -9999.0 -9999.0 -9999.0 -9999.0 -9999.0 -9999.0 -9999.0 -9999.0 -9999.0 -9999.0 -9999.0 -9999.0 -9999.0 -9999.0 -9999.0 -9999.0 -9999.0 -9999.0 -9999.0 -9999.0 -9999.0 -9999.0 -9999.0 109.622000 109.183000 107.948600 108.079800 108.318600 107.254600 103.282700 102.171700 104.937600 106.981800 109.867400 111.468800 112.673700 113.371600 112.861900 110.772800 109.997000 110.007000 106.292000 101.241700 100.207000 105.770300 113.418900 115.703000 117.857700 118.777700 120.093200 121.416500 -9999.0 -9999.0 -9999.0 -9999.0 -9999.0
-9999.0 -9999.0 -9999.0 -9999.0 -9999.0 -9999.0 -9999.0 -9999.0 -9999.0 -9999.0 -9999.0 -9999.0 -9999.0 -9999.0 -9999.0 -9999.0 -9999.0 -9999.0 -9999.0 -9999.0 -9999.0 -9999.0 -9999.0 -9999.0 -9999.0 -9999.0 -9999.0 -9999.0 -9999.0 -9999.0 -9999.0 -9999.0 -9999.0 -9999.0 -9999.0 -9999.0 108.108900 107.310700 106.209600 105.959800 105.983300 105.310400 102.543900 101.698800 103.595200 104.721700 107.281400 109.452100 110.006600 110.879900 110.782300 109.303700 108.194400 107.085800 101.691300 98.400540 102.266200 107.040700 112.025200 113.479200 114.747000 115.566200 117.564300 -9999.0 -9999.0 -9999.0 -9999.0 -9999.0 -9999.0
-9999.0 -9999.0 -9999.0 -9999.0 -9999.0 -9999.0 -9999.0 -9999.0 -9999.0 -9999.0 -9999.0 -9999.0 -9999.0 -9999.0 -9999.0 -9999.0 -9999.0 -9999.0 -9999.0 -9999.0 -9999.0 -9999.0 -9999.0 -9999.0 -9999.0 -9999.0 -9999.0 -9999.0 -9999.0 -9999.0 -9999.0 -9999.0 -9999.0 -9999.0 -9999.0 -9999.0 105.291600 104.196900 103.197200 102.992600 103.046100 103.149900 102.259500 101.315600 100.702200 100.585500 100.406000 101.896400 104.562000 106.589200 107.509500 106.547800 104.537100 102.260000 96.449260 99.267180 103.573600 106.407200 109.310800 110.019600 110.014400 110.194200 112.302500 -9999.0 -9999.0 -9999.0 -9999.0 -9999.0 -9999.0
-9999.0 -9999.0 -9999.0 -9999.0 -9999.0 -9999.0 -9999.0 -9999.0 -9999.0 -9999.0 -9999.0 -9999.0 -9999.0 -9999.0 -9999.0 -9999.0 -9999.0 -9999.0 -9999.0 -9999.0 -9999.0 -9999.0 -9999.0 -9999.0 -9999.0 -9999.0 -9999.0 -9999.0 -9999.0 -9999.0 -9999.0 -9999.0 -9999.0 -9999.0 -9999.0 -9999.0 103.396000 101.964700 101.105400 101.079300 101.705800 102.529700 102.899600 102.105600 100.340100 98.998310 97.675980 98.971370 101.659700 103.712600 105.392000 104.721800 102.415300 99.844620 95.885480 100.429900 103.380700 105.464400 107.569800 108.110000 108.257100 108.735400 -9999.0 -9999.0 -9999.0 -9999.0 -9999.0 -9999.0 -9999.0
-9999.0 -9999.0 -9999.0 -9999.0 -9999.0 -9999.0 -9999.0 -9999.0 -9999.0 -9999.0 -9999.0 -9999.0 -9999.0 -9999.0 -9999.0 -9999.0 -9999.0 -9999.0 -9999.0 -9999.0 -9999.0 -9999.0 -9999.0 -9999.0 -9999.0 -9999.0 -9999.0 -9999.0 -9999.0 -9999.0 -9999.0 -9999.0 -9999.0 -9999.0 -9999.0 -9999.0 101.251700 99.040180 96.804500 96.903410 98.822010 101.155800 103.051600 102.281300 98.365430 94.654650 95.162090 98.842970 99.917770 100.040000 101.596200 101.409600 98.929480 96.020950 93.245090 98.759750 101.935000 103.511700 105.064400 105.722500 106.584500 -9999.0 -9999.0 -9999.0 -9999.0 -9999.0 -9999.0 -9999.0 -9999.0
-9999.0 -9999.0 -9999.0 -9999.0 -9999.0 -9999.0 -9999.0 -9999.0 -9999.0 -9999.0 -9999.0 -9999.0 -9999.0 -9999.0 -9999.0 -9999.0 -9999.0 -9999.0 -9999.0 -9999.0 -9999.0 -9999.0 -9999.0 -9999.0 -9999.0 -9999.0 -9999.0 -9999.0 -9999.0 -9999.0 -9999.0 -9999.0 -9999.0 -9999.0 -9999.0 -9999.0 100.699900 97.636910 93.198140 93.144430 95.182240 97.585920 99.694640 99.267760 94.797150 91.221100 95.129670 100.348100 99.567630 96.900020 95.250700 94.213620 91.431390 90.268760 90.144190 94.779500 99.957630 101.917600 103.624700 104.423700 105.562800 -9999.0 -9999.0 -9999.0 -9999.0 -9999.0 -9999.0 -9999.0 -9999.0
-9999.0 -9999.0 -9999.0 -9999.0 -9999.0 -9999.0 -9999.0 -9999.0 -9999.0 -9999.0 -9999.0 -9999.0 -9999.0 -9999.0 -9999.0 -9999.0 -9999.0 -9999.0 -9999.0 -9999.0 -9999.0 -9999.0 -9999.0 -9999.0 -9999.0 -9999.0 -9999.0 -9999.0 -9999.0 -9999.0 -9999.0 -9999.0 -9999.0 -9999.0 -9999.0 -9999.0 95.982210 91.949910 85.764060 84.867520 84.904130 84.200970 85.238830 86.498230 86.084910 84.417350 90.038760 93.267000 90.867870 87.556880 85.725540 86.757900 89.205340 90.117320 90.735730 91.876520 96.197510 99.983600 102.294500 103.064400 104.138100 -9999.0 -9999.0 -9999.0 -9999.0 -9999.0 -9999.0 -9999.0 -9999.0
-9999.0 -9999.0 -9999.0 -9999.0 -9999.0 -9999.0 -9999.0 -9999.0 -9999.0 -9999.0 -9999.0 -9999.0 -9999.0 -9999.0 -9999.0 -9999.0 -9999.0 -9999.0 -9999.0 -9999.0 -9999.0 -9999.0 -9999.0 -9999.0 -9999.0 -9999.0 -9999.0 -9999.0 -9999.0 -9999.0 -9999.0 -9999.0 -9999.0 -9999.0 -9999.0 -9999.0 90.573380 85.528840 79.114640 77.868560 78.639610 75.004990 76.005810 76.755810 78.552090 79.225390 82.163430 84.371630 84.195590 83.758620 87.593660 90.514090 94.703350 95.931110 96.069440 95.251290 94.230820 97.839930 101.540700 102.179600 -9999.0 -9999.0 -9999.0 -9999.0 -9999.0 -9999.0 -9999.0 -9999.0 -9999.0
-9999.0 -9999.0 -9999.0 -9999.0 -9999.0 -9999.0 -9999.0 -9999.0 -9999.0 -9999.0 -9999.0 -9999.0 -9999.0 -9999.0 -9999.0 -9999.0 -9999.0 -9999.0 -9999.0 -9999.0 -9999.0 -9999.0 -9999.0 -9999.0 -9999.0 -9999.0 -9999.0 -9999.0 -9999.0 -9999.0 -9999.0 -9999.0 -9999.0 -9999.0 -9999.0 -9999.0 81.404110 74.996280 72.315050 73.929550 76.848660 79.597470 82.148470 82.170720 80.785060 80.295940 80.339820 82.736920 86.083150 88.812150 95.454970 99.397440 102.499600 104.338900 105.445900 104.230500 98.860680 95.832790 99.607560 100.883300 -9999.0 -9999.0 -9999.0 -9999.0 -9999.0 -9999.0 -9999.0 -9999.0 -9999.0
-9999.0 -9999.0 -9999.0 -9999.0 -9999.0 -9999.0 -9999.0 -9999.0 -9999.0 -9999.0 -9999.0 -9999.0 -9999.0 -9999.0 -9999.0 -9999.0 -9999.0 -9999.0 -9999.0 -9999.0 -9999.0 -9999.0 -9999.0 -9999.0 -9999.0 -9999.0 -9999.0 -9999.0 -9999.0 -9999.0 -9999.0 -9999.0 -9999.0 -9999.0 -9999.0 -9999.0 73.783970 -9999.0 -9999.0 -9999.0 86.345120 88.202890 90.672540 90.621220 89.113140 88.648430 88.328990 89.922560 93.195150 95.587130 99.891230 102.291500 105.078300 107.182300 109.777200 109.342700 104.010300 100.038000 97.531050 99.855190 -9999.0 -9999.0 -9999.0 -9999.0 -9999.0 -9999.0 -9999.0 -9999.0 -9999.0
